0.009321 0.053552 0.042305 -0.133221 0.962172 0.237649 
-0.015640 0.053804 0.020459 -0.246325 0.952486 0.179149 
-0.016660 0.053499 0.019673 -0.333568 0.930885 0.148948 
-0.016500 0.053377 0.021164 -0.164402 0.983991 0.068803 
-0.008088 0.054893 0.007226 -0.018150 0.994085 -0.107074 
-0.008306 0.054509 0.004840 -0.060379 0.982605 -0.175620 
-0.010624 0.054335 0.005344 -0.105553 0.978439 -0.177529 
-0.009233 0.055186 0.009453 -0.010253 0.999872 -0.012265 
0.019748 0.054222 0.043847 -0.081049 0.935191 0.344746 
-0.008055 0.054504 0.014408 -0.028315 0.993918 0.106425 
0.045717 0.057747 0.033414 -0.053077 0.996270 0.068035 
0.045858 0.057921 0.031719 -0.001179 0.980726 0.195387 
0.043958 0.057758 0.033269 -0.018956 0.992720 0.118943 
0.046602 0.059567 0.018349 -0.016421 0.999370 0.031454 
0.046164 0.059735 0.014448 -0.056160 0.995959 0.070086 
0.046763 0.059808 0.016039 -0.070038 0.996342 0.048954 
-0.017771 0.053687 0.007752 -0.073736 0.997244 -0.008229 
-0.015735 0.053967 0.007941 -0.143771 0.989149 0.030227 
0.011373 0.052456 0.045491 -0.090307 0.886842 0.453163 
-0.050325 0.048451 -0.012890 -0.083097 0.985938 -0.144984 
-0.051101 0.048126 -0.014525 0.040567 0.986659 -0.157666 
-0.052565 0.048278 -0.014111 0.079867 0.972362 -0.219392 
0.037792 0.058233 0.024766 -0.017058 0.997776 0.064444 
0.037086 0.058301 0.023569 -0.043631 0.997042 0.063282 
0.047381 0.059691 0.017539 -0.098212 0.992746 0.069348 
0.009079 0.056151 0.006475 -0.139062 0.990269 -0.005388 
0.006941 0.056009 0.006714 -0.094921 0.995156 -0.025598 
0.009432 0.056225 0.008567 -0.083338 0.996413 -0.014667 
-0.062148 0.048721 -0.015546 0.158049 0.819674 -0.550595 
-0.063981 0.049889 -0.014544 0.163600 0.828760 -0.535157 
-0.063088 0.051015 -0.012204 0.182443 0.895104 -0.406821 
0.015906 0.054473 0.039544 -0.120756 0.987981 0.096501 
-0.029078 0.052293 0.023186 -0.123336 0.992123 -0.021929 
-0.030132 0.052172 0.021516 -0.075677 0.997067 -0.011453 
-0.030411 0.052286 0.024104 -0.122425 0.991512 0.043782 
0.039686 0.058539 0.023829 -0.366116 0.897820 0.244701 
-0.021507 0.050695 -0.018420 -0.153253 0.939331 -0.306871 
-0.025807 0.050290 -0.018164 -0.154331 0.965873 -0.208019 
-0.031548 0.052088 0.019226 -0.075637 0.997013 0.015648 
-0.029730 0.052200 0.019761 -0.157441 0.987183 0.026124 
-0.047447 0.047678 -0.018886 -0.134512 0.917261 -0.374885 
-0.045694 0.048285 -0.017547 -0.100724 0.989135 -0.107084 
-0.044773 0.048011 -0.018882 -0.110629 0.922133 -0.370717 
-0.032194 0.052051 0.021270 -0.094706 0.995505 -0.000847 
-0.033256 0.050317 -0.009703 -0.074116 0.990996 -0.111508 
-0.032006 0.050633 -0.009500 -0.159534 0.980168 -0.117560 
-0.032617 0.050441 -0.010014 -0.087538 0.991970 -0.091281 
-0.033806 0.051876 0.019075 -0.061290 0.998111 0.004191 
-0.029291 0.052353 0.020893 -0.171752 0.984707 0.029216 
-0.028861 0.052289 0.021896 -0.189605 0.981472 0.027620 
-0.072554 0.048771 0.026966 -0.039578 0.925522 0.376619 
0.058448 0.059140 0.031623 -0.130095 0.980279 0.148758 
0.057658 0.059110 0.032135 0.026588 0.998185 0.054030 
0.057736 0.059067 0.033325 -0.025554 0.987256 0.157078 
-0.044693 0.049094 -0.011738 0.026777 0.990596 -0.134175 
-0.045510 0.049306 -0.010305 -0.067907 0.991283 -0.112898 
-0.044306 0.049338 -0.010683 0.057985 0.985076 -0.162056 
-0.051819 0.051309 0.005950 0.266470 0.951215 -0.155512 
-0.054271 0.052091 0.005365 0.369089 0.916781 -0.152600 
-0.053115 0.051827 0.007948 0.334826 0.929539 -0.154431 
0.052811 0.058075 0.036245 -0.081771 0.986234 0.143721 
0.052226 0.057696 0.037518 -0.092526 0.981752 0.166141 
0.053036 0.057885 0.037543 -0.212810 0.951332 0.222890 
-0.014928 0.054075 0.019432 -0.076727 0.995077 0.062720 
-0.016179 0.053992 0.018754 -0.239869 0.968148 0.071783 
-0.007547 0.054803 0.013483 -0.044547 0.991949 0.118541 
-0.028808 0.051606 -0.002317 -0.121559 0.990319 -0.067014 
-0.030052 0.051544 -0.003477 -0.110286 0.986529 -0.120819 
-0.030243 0.051557 -0.002573 -0.110567 0.992798 -0.046117 
-0.028140 0.052549 0.020499 -0.101182 0.994722 0.017036 
0.055794 0.057931 0.038310 -0.250881 0.910495 0.328721 
0.056940 0.057907 0.039027 -0.164733 0.955887 0.243193 
0.056509 0.058365 0.037854 -0.216161 0.941250 0.259466 
-0.018232 0.052013 -0.013231 -0.022145 0.993166 -0.114588 
-0.016421 0.052268 -0.011521 -0.042784 0.986731 -0.156623 
-0.013972 0.052007 -0.014483 -0.079126 0.985743 -0.148489 
-0.008038 0.054375 0.001566 -0.095438 0.993191 -0.066809 
-0.014262 0.052571 -0.010840 -0.086790 0.985223 -0.147661 
0.055389 0.058428 0.034783 -0.097353 0.974678 0.201307 
0.057182 0.058548 0.035115 -0.096822 0.989781 0.104683 
0.055930 0.058941 0.033376 -0.082293 0.977218 0.195635 
0.043728 0.058644 0.024554 -0.072329 0.988493 0.132854 
0.038621 0.058005 0.027952 -0.030751 0.995742 0.086907 
0.037329 0.058152 0.026381 -0.064975 0.990337 0.122516 
-0.008808 0.054217 0.002890 -0.184653 0.974238 0.129475 
-0.060186 0.050923 0.024351 0.009527 0.989366 0.145133 
-0.056855 0.050600 0.025177 -0.044146 0.998528 0.031524 
-0.057939 0.050735 0.023268 0.091702 0.986348 0.136778 
0.057052 0.058753 0.034084 -0.060250 0.963473 0.260941 
-0.011949 0.052806 -0.011243 -0.044870 0.994018 -0.099570 
-0.016191 0.052728 -0.009289 -0.053977 0.984597 -0.166299 
0.059068 0.058152 0.039196 -0.103390 0.961155 0.255912 
0.058124 0.058581 0.037920 -0.104379 0.957477 0.268967 
0.041054 0.059019 0.019056 -0.068804 0.997178 0.030040 
-0.013813 0.052875 -0.008763 0.030669 0.994260 -0.102505 
0.045477 0.058947 0.025333 -0.157515 0.976869 0.144622 
-0.033505 0.050935 -0.005889 -0.077777 0.989567 -0.121276 
-0.032888 0.050683 -0.006773 -0.110370 0.985278 -0.130563 
-0.034593 0.050555 -0.006576 -0.087919 0.985845 -0.142760 
-0.013165 0.052777 -0.010067 -0.023340 0.998700 -0.045313 
-0.019666 0.053080 0.001312 -0.089564 0.985035 -0.147256 
-0.020059 0.052847 -0.000612 -0.043144 0.997556 -0.054954 
-0.021808 0.052973 0.000132 -0.123647 0.991435 -0.042061 
0.060356 0.058843 0.037757 -0.050849 0.979351 0.195669 
0.058943 0.058796 0.036525 -0.084784 0.996309 0.013431 
0.057416 0.058656 0.036876 -0.120097 0.991610 0.047806 
0.045065 0.058698 0.028923 0.084031 0.995769 0.037184 
0.046057 0.058480 0.028151 0.008245 0.994203 0.107205 
0.044865 0.058575 0.026786 -0.026336 0.998864 0.039723 
-0.023510 0.052904 0.010332 -0.100737 0.994242 -0.036541 
-0.022265 0.053057 0.012153 -0.054376 0.998520 -0.000404 
-0.021326 0.053109 0.010984 -0.122543 0.992419 -0.009405 
0.048554 0.058148 0.032103 -0.152265 0.972400 0.176788 
0.047321 0.057926 0.033428 -0.071126 0.991981 0.104471 
0.049371 0.057953 0.033843 -0.127313 0.978445 0.162593 
-0.038189 0.049778 -0.010640 -0.087872 0.984623 -0.150985 
-0.039274 0.049519 -0.011376 -0.096817 0.983847 -0.150568 
-0.039606 0.049859 -0.010049 -0.128790 0.984860 -0.116033 
0.059078 0.058763 0.034912 -0.074654 0.991893 0.102838 
0.055792 0.058440 0.036291 -0.176044 0.980977 0.081807 
0.040207 0.059037 0.017769 -0.114489 0.986251 0.119170 
0.038778 0.058969 0.017285 -0.065553 0.996599 0.049925 
0.039811 0.059037 0.018520 0.012024 0.998737 -0.048781 
-0.069242 0.052032 0.000399 -0.207698 0.977444 -0.038272 
-0.018614 0.053404 0.015696 -0.193031 0.980303 0.041768 
-0.021181 0.053157 0.014112 -0.090081 0.995840 -0.013683 
-0.020270 0.053216 0.017194 -0.081326 0.996480 0.020341 
0.045701 0.057179 0.038452 -0.125449 0.948653 0.290381 
0.045117 0.057312 0.037625 -0.090865 0.969142 0.229146 
0.044167 0.056779 0.038821 -0.070667 0.974861 0.211313 
0.048397 0.059782 0.017765 -0.066081 0.994932 0.075789 
0.046354 0.059113 0.024380 -0.045400 0.994096 0.098551 
-0.022540 0.051515 -0.011649 -0.209799 0.972317 -0.102882 
-0.025548 0.050999 -0.011989 -0.135865 0.980289 -0.143439 
-0.024403 0.051397 -0.010587 -0.149421 0.980305 -0.129132 
-0.005917 0.054799 0.012718 -0.010785 0.996287 0.085413 
-0.042849 0.049201 -0.011137 -0.115658 0.986768 -0.113631 
-0.041802 0.049303 -0.010698 -0.097099 0.991773 -0.083411 
-0.041789 0.049293 -0.012006 -0.101826 0.985016 -0.139197 
0.039758 0.059120 0.019728 -0.028531 0.996541 -0.078056 
-0.048524 0.029342 0.042287 -0.332863 0.113500 0.936119 
-0.044928 0.031224 0.043328 -0.320480 0.097197 0.942255 
-0.047771 0.033111 0.042244 -0.368120 0.160065 0.915897 
-0.043868 0.049612 -0.007146 -0.129366 0.987783 -0.086890 
-0.044663 0.049545 -0.006458 0.015133 0.984720 -0.173485 
-0.043655 0.049836 -0.006077 -0.126619 0.989308 -0.072369 
-0.006458 0.054831 0.009307 0.080402 0.996065 -0.037283 
0.053170 0.059137 0.029326 -0.097954 0.983677 0.150947 
0.051185 0.059148 0.028784 -0.157766 0.968971 0.190277 
0.052543 0.058909 0.031081 -0.151902 0.973889 0.168722 
-0.006179 0.054852 0.007562 0.049825 0.998725 0.008159 
-0.006195 0.054820 0.006002 -0.016676 0.988603 -0.149618 
-0.024438 0.052803 0.019937 -0.097726 0.995024 0.019425 
-0.022587 0.052959 0.019421 -0.084768 0.996158 0.021988 
-0.023447 0.052967 0.018968 -0.117297 0.992723 0.027234 
-0.007253 0.054517 0.015701 -0.082684 0.996220 0.026612 
-0.006906 0.054544 0.017615 -0.102369 0.994642 -0.014418 
-0.006048 0.054634 0.016397 -0.089899 0.995656 0.024224 
0.062316 0.058902 0.037678 -0.066239 0.978836 0.193628 
-0.008128 0.054395 0.002809 -0.097522 0.992042 0.079641 
-0.044949 0.049485 -0.007190 0.095157 0.991825 -0.085023 
-0.045115 0.049421 -0.008410 -0.015067 0.996444 -0.082906 
-0.056991 0.053140 0.014208 -0.134051 0.983402 0.122276 
-0.055898 0.052772 0.017274 -0.178011 0.960587 0.213504 
-0.054668 0.053330 0.014718 0.030271 0.998815 0.038105 
-0.022561 0.050095 -0.019370 -0.094499 0.978901 -0.181171 
0.047068 0.057522 0.037647 -0.070474 0.978265 0.195013 
-0.043800 0.048398 -0.017834 -0.049016 0.992855 -0.108796 
0.041264 0.058724 0.025705 -0.246390 0.947238 0.205016 
-0.044446 0.049730 -0.005619 0.019970 0.993893 -0.108524 
-0.067570 0.050423 0.022745 -0.132330 0.956386 0.260412 
-0.067643 0.051131 0.020110 -0.128260 0.971355 0.200047 
-0.019999 0.053578 0.006134 -0.146545 0.988536 0.036360 
-0.021163 0.053433 0.005023 -0.346596 0.936473 0.053756 
-0.021333 0.053112 0.006593 -0.274346 0.960690 0.042534 
-0.069745 0.048981 0.026721 -0.065110 0.900539 0.429871 
-0.071895 0.049355 0.025087 -0.079370 0.959612 0.269900 
0.049873 0.059735 0.021108 -0.056545 0.998231 -0.018388 
-0.015168 0.053934 0.017567 -0.086936 0.996055 -0.017768 
-0.013540 0.054216 0.017227 -0.111849 0.993356 0.027105 
-0.015235 0.053924 0.015174 -0.105515 0.994304 -0.015064 
-0.032808 0.050891 -0.005049 -0.112974 0.992615 -0.044195 
-0.034761 0.050682 -0.004622 -0.079022 0.992969 -0.088133 
-0.032851 0.051151 -0.003787 -0.101930 0.982577 -0.155411 
0.051068 0.057728 0.037997 -0.017911 0.985568 0.168327 
0.049378 0.057765 0.037710 -0.060899 0.985444 0.158718 
0.049903 0.057228 0.039109 -0.116823 0.979898 0.161716 
0.041035 0.058175 0.027578 -0.148813 0.978591 0.142175 
0.008937 0.056199 0.009205 0.009415 0.998037 -0.061922 
0.010155 0.056300 0.011658 -0.076147 0.996910 -0.019299 
0.041618 0.058439 0.026699 -0.298814 0.934358 0.194126 
-0.023500 0.052882 0.013219 -0.095734 0.995405 -0.001948 
-0.020796 0.050254 -0.019482 -0.115911 0.965808 -0.231906 
-0.040543 0.049943 -0.006376 -0.090754 0.995727 0.017100 
-0.042053 0.049965 -0.006469 -0.094769 0.990311 -0.101499 
-0.040911 0.049982 -0.005739 -0.069267 0.983593 -0.166573 
-0.056530 0.051689 0.020205 -0.159904 0.933555 0.320788 
-0.055420 0.051258 0.022093 -0.296404 0.913799 0.277699 
-0.053984 0.052258 0.021054 -0.336802 0.911343 0.236682 
-0.056971 0.027953 0.039720 -0.222809 0.312184 0.923524 
-0.055883 0.026450 0.040554 -0.247631 0.156862 0.956072 
-0.054139 0.028308 0.040545 -0.300356 0.253764 0.919451 
-0.027151 0.051600 -0.006955 -0.089569 0.991873 -0.090361 
-0.026251 0.051544 -0.006197 -0.107702 0.993357 -0.040529 
-0.026163 0.051621 -0.007142 -0.075578 0.995946 -0.048787 
-0.006879 0.054421 0.004755 -0.046489 0.987682 -0.149409 
-0.028402 0.051466 -0.006617 -0.144044 0.982765 -0.115861 
-0.028095 0.051252 -0.007588 -0.170313 0.977333 -0.125750 
-0.029332 0.051065 -0.007168 -0.110444 0.984122 -0.138944 
-0.006919 0.054757 0.013145 0.027593 0.998160 0.054003 
-0.055554 0.042669 0.035526 -0.372594 0.396898 0.838836 
-0.055810 0.038980 0.036944 -0.343313 0.311770 0.885966 
-0.052427 0.041199 0.037712 -0.440389 0.297834 0.846967 
-0.017964 0.053476 0.001493 -0.187436 0.974580 -0.122727 
-0.016552 0.053696 0.000532 -0.164920 0.974956 -0.149202 
-0.018222 0.053107 -0.000648 -0.173652 0.980808 -0.088664 
-0.037098 0.050037 -0.009047 -0.094540 0.987030 -0.129745 
-0.036665 0.050136 -0.007885 -0.136164 0.984479 -0.110728 
-0.035683 0.050338 -0.008680 -0.165954 0.979541 -0.113837 
-0.033952 0.050671 -0.007660 -0.078292 0.994917 -0.063330 
-0.056568 0.050780 0.023347 -0.125740 0.981993 0.140995 
-0.057029 0.050996 0.021916 -0.049168 0.957474 0.284299 
-0.015724 0.053714 0.000514 0.150720 0.953320 -0.261656 
-0.015578 0.053542 -0.000012 0.140726 0.970780 -0.194377 
-0.005408 0.054696 0.015048 -0.093543 0.995586 0.007701 
-0.006652 0.054598 0.014071 -0.017606 0.995476 0.093373 
-0.053312 0.046196 -0.018641 -0.163396 0.842617 -0.513126 
-0.055397 0.046754 -0.017532 0.025210 0.841782 -0.539229 
-0.054023 0.047668 -0.015974 0.024117 0.892598 -0.450207 
-0.042137 0.050955 0.010836 -0.084024 0.995925 -0.032772 
-0.042454 0.050989 0.009908 -0.080772 0.996732 -0.001342 
-0.043846 0.050830 0.010110 -0.084639 0.995607 -0.040023 
-0.062872 0.050370 0.025732 -0.169599 0.945322 0.278573 
-0.064235 0.051018 0.023076 -0.124140 0.961945 0.243417 
-0.006896 0.054647 0.019658 -0.077165 0.996994 -0.006956 
-0.035391 0.049121 -0.018950 -0.101911 0.990988 -0.086930 
-0.035854 0.048988 -0.018495 -0.088901 0.995018 -0.045125 
0.039962 0.057866 0.029038 -0.030214 0.994034 0.104804 
-0.039647 0.050172 -0.005965 -0.117644 0.978755 -0.167926 
-0.039156 0.050431 -0.005312 -0.072754 0.993864 -0.083319 
-0.038715 0.050169 -0.005973 -0.117441 0.963553 -0.240360 
-0.024525 0.052212 -0.001322 -0.182621 0.981072 -0.064406 
-0.023075 0.052655 0.002510 -0.205254 0.978205 -0.031395 
-0.067092 0.040987 0.033994 0.110290 0.499552 0.859234 
-0.064876 0.038775 0.035053 0.006063 0.409709 0.912196 
-0.040047 0.051279 0.017614 -0.067085 0.997658 0.013315 
-0.041444 0.051307 0.018638 -0.064238 0.997932 0.002097 
-0.039513 0.051246 0.018912 -0.054590 0.998491 -0.005924 
-0.038318 0.050116 -0.006986 -0.100822 0.987701 -0.119508 
-0.038039 0.050440 -0.005677 -0.090021 0.990595 -0.103042 
-0.065168 0.035438 0.036266 0.041810 0.298598 0.953463 
-0.019475 0.050441 -0.019575 -0.139519 0.956514 -0.256154 
-0.036572 0.050446 -0.006485 -0.120167 0.982306 -0.143648 
-0.036757 0.050546 -0.005008 -0.111851 0.991742 -0.062745 
-0.005117 0.054780 0.006430 -0.012881 0.999189 -0.038154 
-0.035500 0.050733 -0.005725 -0.128122 0.988698 -0.077849 
-0.043044 0.042908 0.041903 -0.367329 0.267377 0.890830 
-0.043375 0.046728 0.040103 -0.385160 0.515473 0.765466 
-0.047961 0.043700 0.039424 -0.432714 0.325200 0.840835 
-0.029464 0.051857 0.002457 -0.096569 0.995242 -0.012967 
-0.030558 0.051885 0.001225 -0.084478 0.995148 -0.050432 
-0.031151 0.051680 0.002413 -0.084976 0.995507 -0.041771 
-0.027429 0.052132 0.001283 -0.099800 0.992795 -0.066326 
-0.028837 0.052073 0.001287 -0.109426 0.993295 -0.037288 
-0.027862 0.052051 0.002299 -0.174220 0.983514 -0.048457 
-0.029646 0.052108 0.005474 -0.090296 0.995289 -0.035309 
-0.028618 0.052057 0.003988 -0.148799 0.987149 -0.058279 
-0.030402 0.051918 0.004541 -0.065079 0.997588 -0.024140 
-0.005465 0.054507 0.004717 -0.106447 0.991758 -0.071312 
-0.007651 0.054270 0.003596 -0.086200 0.995326 -0.043545 
-0.005495 0.054604 0.017407 -0.117227 0.993102 0.002712 
-0.052465 0.047858 -0.015612 -0.116997 0.937423 -0.327949 
-0.051277 0.047987 -0.016040 -0.101031 0.961284 -0.256371 
-0.052318 0.047257 -0.017118 -0.190418 0.895127 -0.403100 
-0.030447 0.051998 0.003454 -0.064711 0.993832 -0.090053 
-0.029101 0.052109 0.006157 -0.146567 0.981879 -0.120129 
-0.029937 0.052004 0.006321 -0.077322 0.985656 -0.150015 
-0.049879 0.027138 0.042105 -0.298391 0.172749 0.938680 
-0.052669 0.026823 0.041326 -0.275111 0.164608 0.947216 
-0.050803 0.025367 0.042154 -0.301887 -0.139601 0.943067 
-0.048418 0.049808 -0.001779 -0.061088 0.994445 -0.085721 
-0.047432 0.049681 -0.002212 -0.033879 0.995908 -0.083782 
-0.047618 0.049613 -0.003461 -0.064296 0.997112 0.040424 
-0.036392 0.034285 0.046534 -0.418581 0.154270 0.894981 
-0.036583 0.040094 0.045297 -0.405875 0.218323 0.887469 
-0.040747 0.034709 0.044401 -0.381211 0.150434 0.912166 
-0.004960 0.054716 0.008452 -0.039323 0.999174 -0.010233 
-0.060534 0.031719 0.037860 -0.155090 0.312410 0.937202 
-0.061327 0.028805 0.038980 -0.132079 0.337823 0.931896 
-0.058771 0.029763 0.038746 -0.154721 0.313969 0.936742 
-0.005644 0.054644 0.013851 -0.102705 0.992484 0.066542 
-0.005301 0.054750 0.010873 0.024636 0.999582 -0.015154 
-0.036167 0.049922 -0.012236 -0.107942 0.983609 -0.144439 
-0.034963 0.050012 -0.011617 -0.093915 0.989170 -0.112796 
-0.034618 0.049950 -0.013240 -0.084972 0.989996 -0.112640 
-0.065204 0.052375 -0.007605 -0.167859 0.967465 -0.189302 
-0.065722 0.052747 -0.003817 -0.224730 0.972593 -0.059652 
-0.063503 0.052989 -0.005571 -0.074092 0.986889 -0.143389 
-0.059905 0.052707 0.013982 -0.123334 0.984749 0.122714 
-0.058400 0.052182 0.017954 -0.104098 0.969366 0.222471 
-0.026633 0.052535 0.008103 -0.095620 0.995356 -0.011143 
-0.027889 0.052472 0.008548 -0.114656 0.993403 -0.002013 
-0.026560 0.052507 0.009064 -0.104892 0.993732 -0.038668 
-0.005051 0.054743 0.016394 -0.108496 0.994088 0.004083 
-0.017776 0.053286 0.019606 -0.075421 0.996473 0.036794 
-0.019710 0.053259 0.020278 -0.075498 0.997135 0.004578 
-0.017803 0.053376 0.021519 -0.006055 0.999963 -0.006190 
-0.012540 0.053733 0.003784 -0.017033 0.987584 -0.156166 
-0.014347 0.053864 0.002549 0.101910 0.988532 -0.111440 
-0.028196 0.052346 0.009303 -0.096480 0.990546 -0.097518 
-0.026703 0.052662 0.009941 -0.078024 0.996116 -0.040809 
-0.006457 0.054445 0.002982 -0.108568 0.993106 0.044208 
-0.024766 0.051968 -0.004451 -0.199641 0.977248 -0.071619 
-0.023106 0.052410 -0.004005 -0.163247 0.976649 -0.139666 
-0.022959 0.052310 -0.005922 -0.168277 0.983705 -0.063308 
-0.018382 0.050748 -0.019306 -0.090477 0.936353 -0.339200 
-0.038605 0.043742 0.043266 -0.366948 0.277342 0.887936 
-0.040293 0.040149 0.043494 -0.369592 0.200309 0.907347 
-0.060022 0.035964 0.036724 -0.218000 0.303204 0.927655 
-0.058232 0.032779 0.037959 -0.223459 0.256141 0.940456 
-0.062695 0.033809 0.036834 -0.119905 0.280156 0.952436 
-0.064941 0.032611 0.037008 0.025861 0.280080 0.959628 
-0.019660 0.050861 -0.018756 -0.127827 0.926957 -0.352719 
-0.028976 0.052391 0.006972 -0.111521 0.990818 -0.076439 
-0.026892 0.052540 0.006967 -0.076835 0.994804 -0.066790 
-0.025280 0.052586 0.006548 -0.114634 0.993150 -0.022619 
-0.026478 0.052364 0.006041 -0.130181 0.991357 -0.016253 
-0.031750 0.050174 -0.012265 -0.079999 0.977674 -0.194304 
-0.031127 0.050660 -0.010948 -0.114581 0.977787 -0.175507 
-0.030589 0.050336 -0.011816 -0.133187 0.975547 -0.174841 
-0.063405 0.030656 0.037725 -0.109825 0.347532 0.931214 
-0.064051 0.027972 0.038727 -0.051322 0.358458 0.932134 
-0.065692 0.052668 0.004664 -0.156468 0.986762 0.042651 
-0.025363 0.050390 -0.016141 -0.163446 0.967599 -0.192454 
-0.004006 0.054892 0.017515 -0.040593 0.999162 -0.005169 
-0.005104 0.054720 0.019262 -0.066966 0.995771 0.062896 
-0.047335 0.048136 -0.017148 -0.080241 0.993578 -0.079773 
-0.005489 0.054673 0.000868 -0.109490 0.989611 -0.093180 
-0.044146 0.049458 -0.009631 -0.016579 0.991777 -0.126904 
-0.043355 0.049636 -0.008270 -0.050450 0.996903 -0.060327 
-0.004908 0.054798 0.013773 -0.083543 0.995710 0.039767 
-0.004120 0.054825 0.012457 -0.099008 0.994695 0.027923 
-0.032808 0.051834 0.006318 -0.099511 0.994471 -0.033550 
-0.034887 0.051636 0.005253 -0.115130 0.992785 -0.033500 
-0.034977 0.051583 0.007592 -0.131856 0.990657 -0.034820 
-0.021668 0.053229 0.016063 -0.102309 0.994407 0.026210 
-0.036363 0.049663 -0.013402 -0.113986 0.981072 -0.156540 
-0.048088 0.048527 -0.014360 -0.191149 0.960189 -0.203714 
-0.048010 0.048012 -0.015881 -0.103177 0.979015 -0.175738 
-0.049740 0.047998 -0.015137 -0.059792 0.988370 -0.139818 
-0.017902 0.053472 0.017414 -0.198969 0.977808 0.065592 
-0.018731 0.053313 0.018055 -0.099187 0.994476 0.034340 
-0.017953 0.053474 0.018338 -0.138829 0.986071 0.091601 
-0.051482 0.051841 0.009526 0.194930 0.966640 -0.166164 
-0.053270 0.052493 0.010312 0.341330 0.927462 -0.152668 
-0.051724 0.052080 0.011191 0.284990 0.958516 0.005247 
-0.043396 0.049189 -0.010239 0.010187 0.983512 -0.180555 
-0.042400 0.049410 -0.010012 -0.063575 0.988645 -0.136156 
-0.032220 0.051858 0.003952 -0.084129 0.994744 -0.058369 
-0.033531 0.051661 0.004687 -0.099487 0.994458 -0.033988 
-0.003772 0.054864 0.014369 -0.086323 0.995872 0.028067 
-0.052246 0.052279 0.011997 0.429515 0.898841 -0.087189 
-0.052617 0.052739 0.013586 0.381163 0.914769 -0.133842 
-0.050740 0.051540 0.012951 0.295711 0.954464 -0.039409 
-0.029571 0.051391 -0.006208 -0.102573 0.986709 -0.126035 
-0.029970 0.051241 -0.005516 -0.113978 0.989111 0.093104 
-0.028609 0.051376 -0.005402 -0.113399 0.993405 -0.016951 
-0.036198 0.051824 0.018132 -0.109127 0.993997 0.007878 
-0.034904 0.051834 0.016630 -0.078908 0.996882 -0.000021 
-0.029949 0.051003 -0.008332 -0.155337 0.926972 -0.341458 
-0.030448 0.051140 -0.007735 -0.102274 0.989663 -0.100536 
-0.029154 0.051095 -0.008195 -0.102926 0.984503 -0.141986 
-0.033490 0.050532 -0.008747 -0.093347 0.985711 -0.140215 
-0.034602 0.050418 -0.008373 -0.094445 0.989406 -0.110253 
-0.052146 0.048443 -0.011997 0.117516 0.989067 -0.089088 
-0.038299 0.049613 -0.011948 -0.125691 0.984451 -0.122715 
-0.038032 0.049628 -0.011405 -0.183640 0.978234 -0.096614 
-0.037366 0.049832 -0.011863 -0.185358 0.964521 -0.187994 
-0.053667 0.048938 -0.012247 0.262502 0.956249 -0.129154 
-0.047137 0.048946 -0.012131 -0.105293 0.989031 -0.103588 
-0.045139 0.049109 -0.013072 -0.012129 0.999874 -0.010247 
-0.043380 0.048920 -0.012712 -0.007215 0.998764 -0.049171 
-0.044347 0.049065 -0.014656 -0.017384 0.994435 -0.103912 
-0.054306 0.026654 0.041032 -0.247139 0.147561 0.957678 
-0.059034 0.048054 -0.016023 0.049125 0.858290 -0.510808 
-0.057913 0.048693 -0.014655 0.047651 0.897314 -0.438813 
-0.056513 0.047954 -0.015850 0.076766 0.860685 -0.503317 
-0.032107 0.051760 0.001172 -0.130101 0.989912 -0.056102 
-0.021345 0.053081 0.018932 -0.086355 0.996260 -0.002956 
-0.022190 0.053082 0.020748 -0.095591 0.994903 0.032090 
0.007863 0.056058 0.008004 -0.069632 0.996073 -0.054677 
0.005871 0.055898 0.007411 -0.067759 0.991842 -0.107970 
-0.050255 0.051768 0.011147 0.183722 0.982101 0.041516 
-0.048053 0.051244 0.012575 0.179869 0.983480 -0.020376 
-0.035870 0.051706 0.012750 -0.126560 0.991942 -0.005813 
-0.036919 0.051558 0.012388 -0.085894 0.995465 -0.040875 
-0.035078 0.051802 0.013925 -0.088324 0.995886 -0.020245 
-0.060924 0.052234 -0.007641 0.341186 0.892247 -0.295782 
-0.060962 0.051197 -0.009932 0.327870 0.876036 -0.353641 
-0.062609 0.052326 -0.008479 0.087733 0.952430 -0.291857 
-0.038895 0.050247 -0.004276 -0.108322 0.993419 -0.037227 
-0.056698 0.024907 0.040322 -0.177222 -0.177231 0.968082 
-0.054090 0.025139 0.041046 -0.264788 -0.155935 0.951615 
-0.041652 0.029403 0.044685 -0.358769 0.021622 0.933176 
-0.044654 0.050660 0.008584 -0.056069 0.996580 -0.060703 
-0.045985 0.050692 0.008449 -0.047107 0.998269 -0.035220 
-0.046793 0.050592 0.009508 0.111902 0.988875 -0.098000 
-0.021180 0.053328 0.002962 -0.207845 0.972391 -0.106092 
-0.029633 0.050866 -0.008851 -0.124248 0.987432 -0.097679 
-0.030348 0.050863 -0.009607 -0.091098 0.995607 -0.021625 
-0.030607 0.050702 -0.008602 -0.110388 0.979268 -0.169849 
0.042202 0.058753 0.025924 -0.026588 0.997727 0.061926 
0.042587 0.058732 0.024909 0.091200 0.992828 0.077292 
-0.025247 0.052734 0.009726 -0.089615 0.995693 -0.023779 
-0.025377 0.052648 0.010638 -0.112188 0.993475 -0.020541 
-0.028080 0.052332 0.007827 -0.103819 0.994337 0.022725 
-0.027196 0.052651 0.016535 -0.165887 0.985628 0.031929 
-0.026766 0.052546 0.017538 -0.091958 0.994849 0.042648 
-0.026396 0.052769 0.016934 -0.088337 0.991994 0.090248 
-0.030770 0.050042 -0.014606 -0.123283 0.986780 -0.105195 
-0.031248 0.049901 -0.015803 -0.120371 0.977359 -0.174010 
-0.032144 0.049800 -0.015046 -0.107767 0.979545 -0.169935 
-0.025852 0.052767 0.015996 -0.088548 0.996065 -0.003783 
-0.045417 0.027964 0.043408 -0.278708 0.040529 0.959520 
-0.055677 0.031311 0.039064 -0.316095 0.248591 0.915580 
-0.049288 0.048026 -0.017116 -0.121661 0.974089 -0.190654 
0.010448 0.056272 0.008234 -0.206013 0.977334 0.048751 
-0.051432 0.028421 0.041377 -0.312373 0.177142 0.933297 
-0.037474 0.049489 -0.012590 -0.125472 0.984063 -0.126004 
-0.042149 0.048945 -0.013056 -0.102736 0.984588 -0.141531 
-0.040686 0.049085 -0.013519 -0.121630 0.983009 -0.137478 
-0.028214 0.052446 0.015436 -0.071525 0.997359 0.012641 
-0.027550 0.052629 0.018631 -0.040793 0.999015 -0.017486 
-0.026838 0.052515 0.019781 -0.071389 0.997094 0.026579 
-0.024868 0.051750 -0.007415 -0.170189 0.980088 -0.102289 
-0.026695 0.051423 -0.007991 -0.115617 0.983097 -0.141962 
-0.037199 0.051508 0.020029 -0.133721 0.990270 0.038513 
-0.035439 0.051882 0.019506 -0.094454 0.994366 0.048121 
-0.030536 0.052187 0.007052 -0.119290 0.992145 -0.037656 
-0.029677 0.052167 0.008410 -0.110022 0.993925 -0.002947 
-0.043191 0.048803 -0.015875 -0.083979 0.960860 -0.263998 
-0.041440 0.048800 -0.016661 -0.104616 0.957530 -0.268683 
-0.043889 0.048290 -0.016791 -0.104663 0.977289 -0.184260 
-0.022322 0.052149 -0.008537 -0.196676 0.969623 -0.145433 
-0.023959 0.051556 -0.009600 -0.180925 0.971388 -0.153853 
-0.021091 0.052885 -0.001855 -0.000765 0.996181 -0.087307 
-0.021258 0.052481 -0.004045 -0.084946 0.992727 -0.085312 
-0.022683 0.052870 -0.002232 -0.153636 0.984354 -0.086270 
-0.038327 0.030695 0.046099 -0.431688 0.054484 0.900376 
-0.046998 0.049324 -0.009393 -0.044801 0.986627 -0.156715 
-0.064553 0.041914 0.033393 -0.052730 0.499080 0.864950 
-0.055721 0.049063 -0.013599 0.113848 0.943141 -0.312287 
-0.051996 0.044478 0.036520 -0.471758 0.413348 0.778838 
-0.027866 0.051267 -0.008857 -0.123827 0.982410 -0.139776 
-0.028869 0.050956 -0.008832 -0.219325 0.964364 -0.147984 
-0.064083 0.051880 -0.009818 -0.015962 0.956775 -0.290391 
-0.043694 0.038213 0.042654 -0.350692 0.183228 0.918391 
-0.044676 0.034612 0.042952 -0.333228 0.168674 0.927636 
-0.046658 0.036250 0.041824 -0.368360 0.201535 0.907576 
-0.017027 0.053229 -0.003188 -0.074951 0.994972 -0.066436 
-0.016126 0.053395 -0.001165 -0.004718 0.991398 -0.130796 
-0.059280 0.043784 0.033555 -0.279840 0.459406 0.842992 
-0.062544 0.043422 0.032828 -0.184722 0.478558 0.858405 
-0.061840 0.039982 0.034724 -0.166944 0.410248 0.896563 
-0.061132 0.053089 0.008281 -0.136098 0.987233 0.082759 
-0.053095 0.051173 0.002817 0.325138 0.921949 -0.210463 
-0.055962 0.051810 0.001180 0.392829 0.890965 -0.227742 
-0.051654 0.031593 0.040670 -0.381961 0.196971 0.902944 
-0.022648 0.053045 0.014887 -0.085686 0.996239 -0.012901 
-0.061549 0.052086 0.017176 -0.052492 0.986077 0.157788 
-0.059081 0.051410 0.020941 0.020864 0.975438 0.219282 
-0.026652 0.052345 0.002210 -0.177202 0.974621 -0.136797 
-0.025679 0.052378 0.001802 -0.074166 0.992638 -0.095756 
-0.040448 0.050287 -0.004884 -0.108845 0.993232 -0.040523 
-0.041724 0.050066 -0.005199 -0.131128 0.987924 -0.082538 
-0.041746 0.050075 -0.004371 -0.116377 0.990535 -0.072786 
-0.036808 0.050845 -0.002828 -0.114647 0.984904 -0.129690 
-0.042477 0.048933 -0.014014 0.014155 0.999146 -0.038810 
-0.042663 0.048900 -0.015077 0.054067 0.997805 -0.038233 
-0.046770 0.039752 0.041111 -0.404781 0.216107 0.888510 
-0.042117 0.048232 -0.019096 -0.133640 0.917444 -0.374750 
-0.068764 0.051231 -0.008852 -0.306938 0.928431 -0.209296 
-0.068179 0.050270 -0.012846 -0.275424 0.891911 -0.358658 
-0.072105 0.049238 -0.011437 -0.315433 0.908278 -0.274835 
-0.062885 0.036713 0.035925 -0.095060 0.337179 0.936629 
0.053479 0.057646 0.038717 -0.087086 0.981549 0.170230 
0.052702 0.057458 0.040368 -0.019144 0.997150 0.072978 
0.055030 0.057560 0.040179 -0.078836 0.983484 0.162925 
-0.037072 0.049273 -0.016828 -0.119475 0.976626 -0.178683 
-0.035335 0.049530 -0.016976 -0.115237 0.985847 -0.121760 
-0.036780 0.048916 -0.017695 -0.103203 0.969344 -0.222981 
-0.060019 0.053465 0.000685 0.159968 0.982776 -0.092533 
-0.061285 0.053512 0.001473 -0.065976 0.997730 0.013504 
-0.059313 0.053467 0.003502 0.085878 0.995995 -0.024872 
-0.011065 0.054929 0.009085 -0.178812 0.981786 -0.064203 
-0.012108 0.054396 0.006962 -0.145824 0.981537 -0.123776 
-0.013193 0.054287 0.007990 -0.182149 0.983270 0.001527 
0.044220 0.056505 0.042445 -0.039256 0.998313 0.042771 
0.042941 0.056317 0.043968 -0.104878 0.973781 0.201868 
0.045713 0.056621 0.043512 -0.080989 0.996118 0.034493 
-0.054745 0.052697 0.008198 0.423364 0.893970 -0.146903 
-0.057694 0.053238 0.011556 -0.110622 0.990711 0.079081 
-0.025999 0.050479 -0.015391 -0.163589 0.966873 -0.195948 
-0.026516 0.050503 -0.014621 -0.121745 0.985665 -0.116802 
-0.024892 0.050827 -0.015135 -0.224657 0.958891 -0.173369 
0.059611 0.059342 0.032365 -0.309115 0.916160 0.255147 
-0.059456 0.049542 -0.012922 0.175179 0.916171 -0.360476 
-0.058787 0.050338 -0.009885 0.341970 0.900239 -0.269492 
-0.057032 0.049569 -0.011044 0.166076 0.974470 -0.151088 
-0.031597 0.050885 -0.007255 -0.175434 0.983332 -0.047757 
-0.031363 0.050917 -0.008102 -0.132136 0.965458 -0.224568 
-0.059592 0.027291 0.039565 -0.122379 0.322094 0.938765 
-0.056628 0.053188 0.005396 0.306398 0.941054 -0.143307 
-0.055860 0.053456 0.009857 0.175497 0.983559 -0.042579 
-0.027008 0.052511 0.010676 -0.087412 0.993229 0.076519 
-0.028089 0.052555 0.010136 -0.111097 0.993545 0.022914 
-0.033513 0.049552 -0.015549 -0.094882 0.974192 -0.204811 
-0.032328 0.049717 -0.015945 -0.171484 0.970805 -0.167724 
-0.033056 0.049430 -0.016395 -0.084454 0.995046 -0.052455 
-0.039621 0.048742 -0.018808 -0.092558 0.958531 -0.269539 
-0.023378 0.052879 0.016448 -0.094527 0.994722 0.039920 
-0.028236 0.052419 0.017065 -0.063180 0.997867 -0.016416 
-0.037225 0.051202 0.005091 -0.077238 0.996221 -0.039712 
-0.036309 0.051393 0.004708 -0.133856 0.989993 -0.044672 
-0.036944 0.051293 0.004300 -0.103984 0.994575 -0.002632 
-0.029077 0.052474 0.018319 -0.136578 0.990389 0.021801 
-0.028780 0.050972 -0.009555 -0.100689 0.988588 -0.112054 
-0.027697 0.050975 -0.009831 -0.135743 0.975544 -0.172882 
-0.028275 0.050853 -0.010268 -0.076637 0.995935 -0.047333 
0.008283 0.056224 0.008691 -0.047704 0.995139 -0.086154 
-0.032011 0.049263 -0.018672 -0.080938 0.991557 -0.101310 
-0.030361 0.049572 -0.019324 -0.099280 0.994815 0.022045 
-0.062996 0.051596 0.020452 -0.046739 0.986253 0.158494 
-0.027807 0.052587 0.014335 -0.045125 0.998428 0.033244 
-0.027409 0.052546 0.013538 -0.088140 0.994036 -0.064218 
-0.046434 0.049885 -0.002608 -0.121009 0.992478 -0.018554 
-0.049257 0.048939 -0.010221 -0.137562 0.977762 -0.158298 
-0.033083 0.052022 0.017301 -0.083835 0.996360 0.015433 
-0.040829 0.048669 -0.018186 -0.171378 0.985202 0.002577 
-0.042024 0.048388 -0.017616 -0.097501 0.989170 -0.109711 
-0.039525 0.051330 0.020692 -0.038943 0.999239 -0.002298 
-0.040309 0.051287 0.022424 -0.082253 0.995419 0.048742 
-0.053150 0.036533 0.038772 -0.386263 0.242070 0.890058 
-0.049351 0.035912 0.040737 -0.421429 0.218149 0.880232 
-0.050182 0.039457 0.039391 -0.444232 0.235840 0.864313 
-0.046070 0.049875 -0.006544 0.047979 0.990965 -0.125242 
-0.058315 0.026075 0.040206 -0.147592 0.107922 0.983143 
-0.033288 0.049967 -0.014273 -0.082830 0.985764 -0.146316 
-0.031893 0.050054 -0.014133 -0.057129 0.991818 -0.114166 
-0.044734 0.049880 -0.004114 -0.022975 0.998074 -0.057621 
-0.042956 0.049851 -0.004662 -0.096226 0.991533 -0.087196 
-0.003891 0.053826 0.031287 -0.169744 0.964244 0.203519 
-0.005122 0.053408 0.032504 -0.100395 0.987999 0.117387 
-0.004382 0.054050 0.029401 -0.076916 0.995846 0.048728 
-0.005481 0.053767 0.030208 -0.112174 0.960627 0.254192 
-0.006317 0.053303 0.033111 -0.057037 0.994414 0.088809 
-0.006050 0.053309 0.031487 -0.069379 0.986207 0.150271 
-0.048900 0.051240 0.014404 0.150507 0.985955 -0.072386 
-0.050090 0.051831 0.015710 0.369734 0.912004 -0.177611 
-0.047777 0.051359 0.016288 0.188880 0.979819 -0.065409 
-0.040682 0.050163 -0.003663 -0.048124 0.994830 -0.089423 
-0.034389 0.051030 -0.003064 -0.107016 0.985788 -0.129500 
-0.032610 0.051291 -0.002577 -0.089121 0.991227 -0.097604 
-0.030875 0.052175 0.010816 -0.085264 0.996225 -0.016306 
-0.033185 0.052009 0.009862 -0.121607 0.992554 -0.006885 
-0.033524 0.051889 0.011681 -0.106320 0.994287 -0.009420 
-0.056699 0.035691 0.037687 -0.287832 0.254253 0.923314 
-0.057742 0.037850 0.036682 -0.274032 0.316345 0.908203 
-0.030844 0.050153 -0.013272 -0.142544 0.983670 -0.109886 
-0.030714 0.050361 -0.012436 -0.187949 0.978067 -0.089775 
-0.015791 0.053847 0.012329 -0.105056 0.994440 0.007180 
0.008531 0.056276 0.011585 -0.128394 0.991319 -0.028314 
0.008303 0.056230 0.009747 -0.066340 0.997586 -0.020533 
0.007583 0.056164 0.010509 -0.154543 0.986688 0.050630 
-0.017589 0.053693 0.013609 -0.131419 0.991120 -0.020278 
-0.016941 0.053998 0.015543 -0.163422 0.986025 -0.032382 
-0.028538 0.052373 0.012243 -0.089356 0.995948 -0.010166 
-0.029080 0.052306 0.013264 -0.077567 0.993040 -0.088624 
-0.053032 0.051544 0.026579 -0.254453 0.941588 0.220602 
-0.052118 0.051332 0.027707 -0.049526 0.965213 0.256732 
-0.051693 0.051490 0.027312 -0.166004 0.903555 0.395008 
-0.042422 0.051481 0.029034 0.163655 0.986332 -0.019128 
-0.042626 0.051454 0.030992 0.103457 0.989972 0.096185 
-0.040568 0.051008 0.031083 0.135977 0.988947 0.059115 
-0.035432 0.051021 0.031475 -0.070287 0.995867 0.057529 
-0.036626 0.051059 0.029850 -0.071178 0.993667 0.086942 
-0.037985 0.050881 0.031234 -0.031960 0.998982 0.031846 
-0.042129 0.049413 -0.009313 -0.024618 0.985754 -0.166382 
-0.041248 0.049512 -0.009513 -0.143105 0.981324 -0.128547 
-0.032037 0.049715 0.038320 -0.239574 0.926719 0.289477 
-0.029895 0.050605 0.037515 -0.248880 0.946931 0.203422 
-0.033028 0.050204 0.036637 -0.085903 0.937186 0.338087 
-0.020355 0.052015 0.038514 -0.006132 0.978435 0.206463 
-0.017086 0.051728 0.038760 -0.003932 0.986745 0.162232 
-0.017807 0.052106 0.036495 0.002029 0.995068 0.099178 
-0.049005 0.052559 0.024485 0.078685 0.992958 0.088565 
-0.050561 0.052079 0.026476 -0.150358 0.961491 0.230061 
-0.047335 0.052123 0.027373 0.043702 0.987508 0.151389 
-0.044575 0.051625 0.029441 0.015098 0.992600 0.120486 
-0.027554 0.051371 0.035674 -0.169755 0.981721 0.086064 
-0.026854 0.051495 0.037689 -0.228018 0.965764 0.123722 
-0.025142 0.051872 0.036887 -0.130931 0.990977 0.028659 
-0.044549 0.051724 0.027324 0.172078 0.984844 -0.021733 
-0.042121 0.049641 -0.008683 -0.047624 0.989486 -0.136564 
-0.040836 0.049832 -0.008064 -0.098123 0.982992 -0.155237 
-0.048598 0.051807 0.028645 -0.064148 0.963240 0.260870 
-0.046917 0.051199 0.030622 -0.082841 0.957897 0.274901 
-0.031679 0.051264 0.032772 -0.099718 0.988485 0.113815 
-0.033849 0.051004 0.032862 -0.056767 0.995067 0.081360 
-0.033126 0.050896 0.034435 -0.037526 0.979058 0.200092 
-0.033459 0.051319 -0.001169 -0.101006 0.992904 -0.062770 
-0.030521 0.051593 -0.001297 -0.098394 0.992132 -0.077415 
-0.014248 0.053303 -0.000157 -0.045877 0.995697 -0.080515 
-0.045425 0.049641 0.035726 -0.156274 0.859390 0.486854 
-0.044700 0.050721 0.033630 -0.128576 0.930419 0.343203 
-0.047297 0.050249 0.033602 -0.149705 0.917292 0.369004 
-0.014543 0.051739 0.039965 -0.131273 0.970686 0.201338 
-0.014856 0.052040 0.037558 -0.093087 0.988575 0.118552 
-0.050221 0.051403 0.029321 -0.150873 0.947311 0.282557 
-0.052898 0.050962 0.028814 -0.212466 0.935235 0.283185 
-0.051537 0.050656 0.030758 -0.251743 0.901901 0.350997 
-0.056041 0.050241 0.029055 -0.127966 0.924842 0.358179 
-0.055319 0.050701 0.027206 -0.191270 0.972600 0.132158 
-0.051396 0.051325 0.027977 -0.291779 0.945283 0.145964 
-0.040511 0.050358 0.035735 -0.102096 0.949508 0.296666 
-0.039303 0.050680 0.033925 -0.004069 0.992993 0.118103 
-0.042140 0.051040 0.033352 0.012786 0.968354 0.249251 
-0.033035 0.050455 -0.010448 -0.055494 0.997929 -0.032524 
-0.032315 0.050331 -0.010455 -0.143389 0.988707 -0.043568 
-0.053877 0.049805 0.030645 -0.274013 0.831011 0.484084 
-0.051619 0.049966 0.032282 -0.322082 0.826035 0.462524 
-0.042295 0.049571 -0.007725 -0.090450 0.989156 -0.115709 
-0.027864 0.051736 0.031446 -0.138090 0.981233 0.134581 
-0.029204 0.051548 0.033346 -0.115432 0.987054 0.111357 
-0.026419 0.051724 0.033441 -0.085032 0.993300 0.078256 
-0.016186 0.053952 0.016184 -0.016004 0.998825 0.045737 
-0.038041 0.051394 0.010893 -0.070627 0.997313 -0.019482 
-0.020980 0.052228 0.036149 -0.035750 0.998214 0.047872 
-0.019648 0.052217 0.034625 -0.022167 0.999716 -0.008723 
-0.044149 0.051359 0.031583 -0.081995 0.975770 0.202852 
-0.049464 0.050618 0.031896 -0.131686 0.928412 0.347434 
-0.046299 0.048941 -0.014090 -0.146220 0.982761 -0.113138 
-0.051461 0.052692 0.022904 -0.139091 0.979109 0.148324 
-0.037894 0.050968 0.029461 -0.086227 0.991315 0.099294 
-0.019235 0.052184 0.033370 -0.079917 0.992209 0.095572 
-0.017094 0.052335 0.033879 -0.053973 0.993476 0.100459 
-0.018163 0.052501 0.032615 -0.094960 0.986471 0.133632 
-0.025376 0.052617 0.007787 -0.096191 0.994833 -0.032476 
-0.035832 0.050961 0.034430 -0.035730 0.987716 0.152118 
-0.024336 0.051696 0.038832 -0.102704 0.954522 0.279891 
-0.021265 0.051115 0.040812 -0.078551 0.901390 0.425824 
-0.042729 0.049713 0.036256 -0.172557 0.884171 0.434127 
-0.046636 0.052084 0.024916 0.217906 0.974803 -0.047700 
-0.051673 0.051288 0.027656 -0.094609 0.955417 0.279693 
-0.031529 0.051928 0.007718 -0.090673 0.995464 -0.028803 
-0.033042 0.051979 0.008194 -0.103890 0.992026 -0.071359 
-0.011021 0.052165 0.040928 -0.131254 0.942161 0.308392 
-0.012033 0.052472 0.038581 -0.120175 0.988097 0.096032 
-0.030765 0.050887 0.035264 -0.142687 0.968266 0.205184 
-0.033917 0.049189 0.038720 -0.058705 0.951682 0.301422 
-0.040432 0.049277 -0.012116 -0.094199 0.988371 -0.119369 
-0.039047 0.049488 -0.012677 -0.124228 0.987501 -0.097006 
-0.037833 0.049571 -0.013520 -0.108864 0.984584 -0.136908 
-0.038993 0.049293 -0.013699 -0.125799 0.974290 -0.186903 
-0.018755 0.053715 0.004064 -0.079576 0.994953 -0.061128 
-0.020431 0.053597 0.004428 -0.128046 0.991296 -0.030600 
-0.036426 0.049487 0.039033 0.076033 0.935926 0.343891 
-0.035672 0.050095 0.037191 0.062937 0.936083 0.346102 
-0.038174 0.050303 0.036895 -0.055444 0.961186 0.270272 
-0.017217 0.053491 0.018428 -0.283277 0.950753 0.125789 
-0.017003 0.053809 0.017062 -0.222808 0.971780 0.077464 
-0.015022 0.052326 0.035302 -0.062361 0.991102 0.117592 
-0.058364 0.052364 -0.001414 0.465335 0.859972 -0.209552 
-0.057399 0.051281 -0.003282 0.452154 0.868503 -0.203126 
-0.052793 0.052209 0.024034 -0.301229 0.936044 0.181888 
-0.044413 0.051541 0.024962 0.194913 0.979265 -0.055221 
-0.030785 0.049749 0.039951 -0.242074 0.933277 0.265319 
-0.027646 0.050983 0.039104 -0.239952 0.922743 0.301609 
-0.042509 0.051227 0.026938 0.178982 0.981119 -0.073295 
-0.025807 0.050622 0.040869 -0.142498 0.864027 0.482858 
-0.058314 0.040185 0.035634 -0.286491 0.368934 0.884200 
-0.040495 0.049504 0.037984 -0.217870 0.896373 0.386068 
0.044427 0.058039 0.031714 0.068405 0.954665 0.289717 
0.043357 0.058221 0.031321 -0.154090 0.961879 0.225932 
-0.039783 0.050937 0.028328 0.027904 0.999373 0.021795 
-0.008992 0.052576 0.038882 -0.066914 0.995654 0.064774 
-0.038466 0.049340 0.039631 -0.121190 0.889903 0.439756 
-0.019374 0.053613 0.008096 -0.118511 0.992922 0.007757 
-0.018798 0.053747 0.009548 -0.125455 0.992099 -0.000419 
0.045733 0.056526 0.041656 -0.068379 0.994615 0.077874 
0.048426 0.057030 0.040682 -0.152669 0.987073 0.048781 
0.046114 0.056864 0.039516 -0.078939 0.981903 0.172150 
-0.041948 0.050288 -0.003380 -0.084096 0.988421 -0.126299 
-0.012926 0.052649 0.034113 -0.078664 0.970655 0.227247 
-0.041714 0.051047 0.025097 0.068049 0.997677 -0.002987 
-0.014547 0.051094 0.041997 -0.110482 0.908500 0.403015 
-0.017577 0.051388 0.040516 -0.042138 0.950733 0.307135 
-0.018126 0.050609 0.042245 -0.081471 0.870753 0.484924 
-0.028254 0.051612 -0.003786 -0.103070 0.987840 -0.116399 
-0.038406 0.048807 -0.018164 -0.084559 0.994504 -0.061731 
-0.027847 0.052234 0.005650 -0.132367 0.990162 -0.045365 
-0.025973 0.052626 0.004862 -0.081414 0.996513 0.018271 
-0.024822 0.052744 0.008765 -0.120496 0.992484 -0.021342 
-0.045499 0.050310 0.003561 -0.076530 0.995842 -0.049415 
-0.046573 0.050174 0.001609 -0.063082 0.995295 -0.073539 
-0.046984 0.050303 0.003241 -0.070337 0.995986 -0.055357 
-0.035014 0.051211 0.029777 -0.122666 0.987697 0.096996 
-0.033249 0.051326 0.030638 -0.087518 0.989616 0.114022 
-0.039705 0.051311 0.013531 -0.141932 0.989873 -0.002612 
-0.040578 0.051213 0.014938 -0.097613 0.995096 -0.015984 
-0.038978 0.051414 0.014885 -0.145327 0.989373 -0.004598 
-0.035628 0.049481 -0.014230 -0.126820 0.982985 -0.132883 
-0.020216 0.050450 0.042214 -0.127627 0.818861 0.559624 
-0.022456 0.050100 0.042002 -0.115506 0.811162 0.573301 
-0.023813 0.051930 0.035021 -0.105035 0.994416 -0.010231 
-0.040104 0.046294 0.041893 -0.352073 0.394832 0.848618 
-0.019510 0.009419 0.045627 -0.079371 -0.625238 0.776388 
-0.033954 0.049906 -0.012271 -0.082750 0.986652 -0.140250 
-0.025487 0.051994 0.031640 -0.073179 0.984287 0.160698 
-0.043005 0.049500 -0.009323 -0.006671 0.979610 -0.200799 
-0.033021 0.050343 -0.011411 -0.110062 0.978270 -0.175713 
-0.033203 0.050004 -0.012711 -0.075448 0.986114 -0.147943 
-0.040676 0.003683 0.033349 -0.158624 -0.928935 0.334541 
-0.041918 0.004848 0.035253 -0.249426 -0.858291 0.448468 
0.007191 0.056049 0.008439 -0.063490 0.995963 -0.063452 
-0.047607 0.025770 0.043002 -0.215714 -0.089838 0.972315 
-0.049564 0.026296 0.042564 -0.272536 0.168603 0.947258 
-0.024205 0.051870 0.033070 -0.072013 0.994323 0.078330 
-0.031703 0.049461 -0.018175 -0.070140 0.941163 -0.330596 
-0.022823 0.052016 0.037097 -0.073629 0.995018 0.067209 
-0.019438 0.053339 0.013261 -0.162008 0.986068 0.037720 
-0.029194 0.050823 -0.010599 -0.073393 0.983783 -0.163662 
-0.021449 0.052187 0.034766 -0.073040 0.996268 -0.045990 
-0.065755 0.051502 -0.011019 -0.144534 0.943695 -0.297573 
0.056655 0.059205 0.031321 -0.015924 0.996612 0.080689 
-0.033809 0.005333 0.039209 -0.161153 -0.913017 0.374740 
-0.020310 0.053493 0.007597 -0.276127 0.960289 0.039992 
-0.063283 0.052346 0.014252 -0.080633 0.992828 0.088264 
-0.049294 0.051557 0.010011 0.264672 0.958210 -0.108544 
-0.004861 0.018008 0.049094 -0.068703 -0.201933 0.976987 
-0.007385 0.015411 0.048675 0.020407 -0.221589 0.974927 
-0.037165 0.051335 0.026287 -0.107366 0.993860 0.026741 
-0.037868 0.051204 0.027253 -0.135766 0.990242 0.031422 
-0.036800 0.051371 0.027446 -0.051231 0.996449 0.066826 
-0.035620 0.005250 0.038084 -0.135209 -0.909587 0.392900 
-0.050739 0.046913 -0.019107 -0.260901 0.860026 -0.438505 
-0.026882 0.052517 0.003318 -0.174164 0.979813 -0.098146 
-0.040991 0.051096 0.008014 -0.114013 0.991911 -0.055806 
-0.014537 0.053181 -0.002586 -0.014157 0.996216 -0.085749 
-0.014043 0.053131 -0.004227 0.005748 0.998039 -0.062330 
-0.015360 0.053076 -0.004465 0.014490 0.997078 -0.075003 
-0.020438 0.052657 -0.006880 -0.122481 0.991402 -0.046053 
-0.051154 0.048571 -0.010743 -0.055081 0.988899 -0.138004 
-0.024333 0.051044 -0.014424 -0.228626 0.971730 -0.058923 
-0.022520 0.051377 -0.014833 -0.187689 0.970198 -0.153258 
-0.052075 0.022812 0.040917 -0.251772 -0.337576 0.907002 
-0.015715 0.013560 0.047921 -0.037287 -0.287011 0.957201 
-0.017546 0.010764 0.046744 -0.064731 -0.483500 0.872948 
-0.010982 0.014073 0.048434 -0.043672 -0.267076 0.962685 
-0.034078 0.050295 -0.010411 -0.122697 0.987770 -0.096205 
-0.035699 0.050069 -0.010055 -0.145269 0.982510 -0.116495 
-0.034471 0.050459 -0.009342 -0.085930 0.987827 -0.129667 
-0.008395 0.036332 0.050508 -0.078616 0.102878 0.991582 
-0.017243 0.036636 0.049509 -0.118302 0.121070 0.985569 
-0.013718 0.032239 0.050271 -0.100691 0.041726 0.994042 
-0.040913 0.050396 -0.002206 -0.080290 0.988023 -0.131769 
-0.039311 0.050440 -0.002819 -0.127112 0.976659 -0.173149 
-0.031490 0.052142 0.017414 -0.111544 0.993333 0.029108 
-0.032293 0.052017 0.016073 -0.102238 0.994471 -0.023967 
-0.019433 0.052884 -0.002537 -0.118175 0.991199 -0.059659 
0.045276 0.057623 0.035629 -0.026935 0.994554 0.100683 
-0.058205 0.053009 0.001517 0.361190 0.918025 -0.163622 
-0.054159 0.051639 0.023054 -0.466093 0.863948 0.190660 
0.042503 0.056604 0.040966 -0.072137 0.994830 0.071478 
-0.040520 0.050065 -0.007042 -0.072478 0.991527 -0.107802 
-0.049153 0.045874 0.037627 -0.473998 0.434837 0.765665 
-0.051169 0.046747 0.035604 -0.474807 0.501475 0.723244 
0.000003 0.023563 0.051126 -0.215807 -0.034454 0.975828 
-0.021337 0.052307 0.031744 -0.065890 0.990182 0.123282 
-0.019762 0.052338 0.032436 -0.086539 0.985040 0.149024 
-0.019030 0.052512 0.031376 -0.099719 0.975198 0.197599 
-0.001818 0.029051 0.051122 -0.089365 -0.023402 0.995724 
0.002680 0.031828 0.051503 -0.097554 0.011494 0.995164 
-0.000937 0.035256 0.051005 -0.095168 0.054852 0.993949 
0.011271 0.056654 0.007740 -0.130761 0.991400 -0.005284 
-0.007738 0.019715 0.049720 0.038619 -0.183734 0.982217 
-0.004788 0.021443 0.049818 -0.071283 -0.177407 0.981553 
-0.034358 0.051569 0.003092 -0.107105 0.992582 -0.057532 
-0.002402 0.024660 0.050674 -0.142908 -0.106848 0.983952 
-0.025967 0.051254 -0.009662 -0.121909 0.982888 -0.138090 
-0.013783 0.054129 0.018935 -0.089791 0.995779 0.019031 
-0.012459 0.054173 0.018684 -0.051455 0.998436 0.021881 
-0.040174 0.050959 0.005320 -0.109257 0.992777 -0.049575 
-0.042640 0.050801 0.006383 -0.108843 0.993273 -0.039524 
0.054228 0.057083 0.041989 0.021633 0.995194 0.095499 
-0.046115 0.048114 -0.016454 -0.103804 0.974839 -0.197266 
-0.032436 0.051600 0.002374 -0.091903 0.993717 -0.063878 
-0.033064 0.051666 0.002790 -0.068980 0.987476 -0.141893 
0.017320 0.039893 0.052563 -0.084468 0.054535 0.994933 
0.018840 0.042419 0.052484 -0.073325 0.190008 0.979041 
0.012754 0.040824 0.052086 -0.070704 0.108547 0.991574 
-0.036489 0.051396 0.006331 -0.103307 0.994156 -0.031332 
0.024514 0.047195 0.051065 -0.074574 0.449015 0.890407 
0.018734 0.046473 0.051001 -0.073674 0.427100 0.901198 
0.020743 0.044899 0.051840 -0.060245 0.347561 0.935720 
-0.031172 0.051052 -0.005317 -0.125888 0.992013 0.007866 
-0.029924 0.051273 -0.004686 -0.128017 0.982406 -0.135981 
-0.035186 0.051647 0.009151 -0.102184 0.994443 -0.025332 
-0.036350 0.051581 0.008529 -0.078860 0.996227 -0.036232 
0.037154 0.058833 0.018671 -0.063039 0.997785 0.021243 
0.038744 0.059073 0.018806 -0.079033 0.996104 -0.039131 
-0.025424 0.050758 -0.013780 -0.205068 0.974350 -0.092674 
-0.026346 0.052111 -0.000624 -0.096043 0.994314 -0.045996 
-0.027691 0.051939 -0.000335 -0.115635 0.989987 -0.080961 
-0.044689 0.050961 0.018337 0.025872 0.998755 -0.042652 
-0.046481 0.051025 0.017941 0.179314 0.980992 -0.074174 
-0.045591 0.051282 0.020338 0.145477 0.980577 -0.131548 
-0.021606 0.052053 0.033354 -0.062670 0.996688 0.051819 
-0.058279 0.053433 0.009144 -0.093085 0.992392 0.080575 
-0.058695 0.053526 0.006857 -0.021722 0.999741 0.006717 
-0.020195 0.012709 0.047494 -0.069737 -0.390165 0.918100 
-0.046459 0.005244 0.032496 -0.260457 -0.859229 0.440326 
-0.013114 0.053053 -0.004877 -0.058291 0.996607 -0.058112 
-0.012944 0.053095 -0.003419 -0.093624 0.991301 -0.092506 
0.048764 0.058853 0.027266 -0.066756 0.993648 0.090598 
0.049524 0.059101 0.026997 -0.269711 0.931344 0.244651 
0.048079 0.058928 0.025678 -0.162391 0.963741 0.211736 
-0.047969 0.027450 0.042711 -0.297855 0.113219 0.947873 
-0.010425 0.017213 0.049221 -0.036486 -0.220471 0.974711 
-0.013648 0.054025 0.010604 -0.218173 0.975899 -0.004735 
-0.015818 0.053872 0.009754 -0.071253 0.997408 0.010000 
-0.037776 0.051664 0.013745 -0.101001 0.994663 -0.021088 
-0.019635 0.015336 0.048365 -0.075105 -0.185337 0.979801 
