-0.073030 0.056732 -0.066443 0.003235 0.025114 -0.999679 
-0.071457 0.051744 -0.066847 0.008201 0.035422 -0.999339 
-0.071123 0.056815 -0.066481 0.027345 0.052390 -0.998252 
-0.069853 0.053168 -0.066684 0.027236 0.072805 -0.996974 
-0.069022 0.055346 -0.066414 0.039927 0.116804 -0.992352 
-0.068469 0.059962 -0.066384 -0.000210 0.098868 -0.995100 
-0.073226 0.060480 -0.066398 -0.017836 0.178613 -0.983758 
-0.067707 0.054362 -0.066632 0.012907 0.110215 -0.993824 
-0.067451 0.056728 -0.066168 -0.039404 0.006831 -0.999200 
-0.069794 0.046305 -0.066964 0.016892 0.047073 -0.998749 
-0.067453 0.050326 -0.066867 0.008545 0.048465 -0.998788 
-0.063340 0.049633 -0.066836 -0.014786 0.072827 -0.997235 
-0.065907 0.046019 -0.067034 -0.022568 0.048734 -0.998557 
-0.065217 0.062144 -0.066029 -0.006201 0.510807 -0.859673 
-0.064685 0.053950 -0.066575 -0.025900 0.049074 -0.998459 
-0.088274 0.062628 -0.065928 0.121175 0.486515 -0.865228 
-0.063517 0.058304 -0.066790 -0.031409 0.043566 -0.998557 
-0.054547 0.061712 -0.065777 0.114267 0.472475 -0.873905 
-0.052343 0.058459 -0.066082 0.048481 0.153013 -0.987034 
-0.057096 0.060730 -0.066149 0.055761 0.281787 -0.957855 
-0.061081 0.061361 -0.066269 0.026829 0.423724 -0.905394 
-0.047655 0.061141 -0.065334 -0.014257 0.424507 -0.905312 
-0.044544 0.061175 -0.065427 -0.055873 0.429019 -0.901566 
-0.044742 0.057975 -0.066093 0.023100 0.120522 -0.992442 
-0.057503 0.062449 -0.064829 -0.115258 0.668725 -0.734522 
-0.056812 0.062044 -0.065537 -0.030616 0.635830 -0.771222 
-0.058714 0.061990 -0.065406 0.006647 0.744278 -0.667837 
-0.058543 0.058621 -0.066636 0.058501 0.082638 -0.994861 
-0.041724 0.060415 -0.065862 0.005100 0.169623 -0.985496 
-0.042655 0.061845 -0.065222 -0.059194 0.718834 -0.692657 
-0.040503 0.061774 -0.065343 0.052095 0.657028 -0.752064 
-0.057893 0.053627 -0.066710 0.023983 0.041076 -0.998868 
-0.052260 0.054388 -0.066469 -0.015411 0.077485 -0.996874 
-0.053067 0.052088 -0.066652 0.000449 0.032737 -0.999464 
-0.045615 0.061874 -0.064840 -0.015477 0.745450 -0.666382 
-0.047977 0.053806 -0.066805 0.030556 0.088524 -0.995605 
-0.082053 0.047826 -0.066948 0.012719 -0.108313 -0.994035 
-0.082325 0.044297 -0.067266 -0.049314 0.005290 -0.998769 
-0.084461 0.042732 -0.066970 -0.075253 -0.005008 -0.997152 
-0.082823 0.046985 -0.066948 -0.008368 -0.039904 -0.999168 
-0.074360 0.047662 -0.066977 -0.013319 -0.069758 -0.997475 
-0.067086 0.062737 -0.064718 0.088819 0.781666 -0.617341 
-0.053262 0.062133 -0.064913 0.021956 0.916849 -0.398629 
-0.051293 0.061861 -0.065075 0.080445 0.598542 -0.797042 
-0.039556 0.062019 -0.064318 0.024696 0.852339 -0.522407 
-0.038298 0.061750 -0.064996 0.075064 0.692825 -0.717188 
-0.036986 0.062308 -0.063947 0.016348 0.706567 -0.707457 
-0.090664 0.063501 -0.065940 0.099950 0.678799 -0.727491 
-0.092100 0.062780 -0.066394 -0.117766 0.314776 -0.941832 
-0.092419 0.063896 -0.065080 0.065298 0.796015 -0.601744 
-0.106274 0.040353 0.042971 -0.987710 0.146314 -0.054960 
-0.106006 0.038791 0.040633 -0.991532 0.116379 -0.057630 
-0.106607 0.037356 0.042902 -0.991595 0.123879 -0.037325 
-0.099138 0.003307 0.036287 -0.626355 -0.774160 -0.091411 
-0.098791 0.002494 0.040111 -0.483956 -0.873971 -0.044294 
-0.100496 0.004026 0.038835 -0.710008 -0.700582 -0.071229 
-0.096936 0.002123 0.039351 -0.012779 -0.999677 -0.021967 
-0.097393 0.002000 0.042426 -0.095248 -0.994659 -0.039771 
-0.102218 0.004558 0.062354 -0.951875 -0.303452 0.043016 
-0.100882 0.002361 0.063913 -0.725466 -0.683260 0.082801 
-0.101400 0.003857 0.069134 -0.898346 -0.436182 0.052148 
-0.095955 0.001348 0.055834 -0.017097 -0.992803 -0.118533 
-0.094826 0.001646 0.053685 -0.045014 -0.997840 -0.047849 
-0.092098 0.001462 0.055576 0.012187 -0.998521 -0.052978 
-0.099087 0.002032 0.050612 -0.181223 -0.982053 -0.052253 
-0.096323 0.001905 0.049894 -0.012379 -0.998348 -0.056100 
-0.096678 0.001741 0.053054 -0.047871 -0.995681 -0.079553 
-0.098209 0.002356 0.036925 -0.372538 -0.925227 -0.071906 
-0.096680 0.002213 0.035109 -0.039850 -0.998600 -0.034788 
-0.106638 0.036068 0.044995 -0.986955 0.151859 -0.053468 
-0.106803 0.036932 0.046814 -0.987343 0.155770 -0.029821 
-0.071082 0.003209 0.023802 0.031843 -0.999179 0.025046 
-0.067345 0.003430 0.022209 0.092545 -0.995094 -0.034971 
-0.067729 0.003579 0.025588 0.071889 -0.997197 -0.020723 
-0.057379 0.003983 0.025911 -0.002218 -0.997630 -0.068772 
-0.056941 0.003765 0.029019 -0.002228 -0.999867 0.016129 
-0.060732 0.003549 0.028007 0.032478 -0.998328 -0.047808 
-0.100896 0.002343 0.053749 -0.598479 -0.799667 -0.048536 
-0.101906 0.004136 0.056304 -0.922000 -0.387189 -0.000817 
-0.102303 0.004631 0.050091 -0.933827 -0.355308 -0.041511 
-0.092771 0.002231 0.044293 0.020537 -0.999078 -0.037714 
-0.092445 0.002041 0.042419 -0.016503 -0.999435 -0.029297 
-0.090956 0.002066 0.044919 -0.015218 -0.998418 -0.054131 
-0.063881 0.003453 0.035974 0.123218 -0.990125 -0.066859 
-0.063909 0.003235 0.038802 0.109884 -0.992936 -0.044759 
-0.065849 0.002751 0.037554 0.172562 -0.984729 -0.023062 
-0.059756 0.003343 0.042411 0.022142 -0.998580 -0.048447 
-0.058194 0.003374 0.042370 0.087809 -0.995063 -0.046260 
-0.059157 0.003080 0.043580 0.041172 -0.988558 -0.145116 
-0.086205 0.001374 0.054692 -0.018784 -0.999031 -0.039792 
-0.085591 0.001979 0.049273 -0.000572 -0.996379 -0.085016 
-0.081755 0.001560 0.050048 -0.058591 -0.994635 -0.085258 
-0.058479 0.003723 0.015888 -0.059806 -0.997759 -0.030004 
-0.059287 0.003983 0.019253 -0.091608 -0.995789 -0.003476 
-0.091254 0.002210 0.039724 0.015938 -0.999266 -0.034828 
-0.089312 0.002307 0.040777 -0.014551 -0.999410 -0.031119 
-0.090586 0.002162 0.040525 0.026807 -0.998760 0.041961 
-0.080165 0.001752 0.046050 0.017172 -0.996771 -0.078434 
-0.079315 0.001672 0.048662 0.128487 -0.990154 -0.055561 
-0.100170 0.001904 0.061261 -0.448144 -0.893856 -0.013707 
-0.097975 0.001031 0.059606 -0.205427 -0.977293 -0.051950 
-0.098914 0.001214 0.063954 -0.296939 -0.953385 0.053706 
-0.080183 0.002011 0.041656 0.035766 -0.998779 -0.034091 
-0.085749 0.002198 0.042011 0.002468 -0.999129 -0.041649 
-0.084767 0.002400 0.038191 0.007425 -0.998745 -0.049530 
-0.066826 0.002219 0.047018 0.057368 -0.997597 -0.038846 
-0.065448 0.002671 0.044273 0.204566 -0.976340 -0.070096 
-0.064214 0.002864 0.045522 0.092679 -0.993440 -0.066996 
-0.093835 0.002038 0.044092 -0.030566 -0.998781 -0.038757 
-0.095243 0.002264 0.042154 0.023115 -0.999013 -0.037924 
-0.089011 0.002000 0.043101 0.002016 -0.998340 -0.057554 
-0.073918 0.001932 0.050978 0.018164 -0.996461 -0.082072 
-0.073375 0.001611 0.054206 0.022242 -0.992803 -0.117674 
-0.075920 0.001825 0.052642 -0.002871 -0.994801 -0.101802 
-0.076598 0.002674 0.035376 0.022515 -0.997674 -0.064335 
-0.075076 0.002821 0.034677 0.016141 -0.998135 -0.058873 
-0.075035 0.002684 0.037182 0.028171 -0.999147 -0.030207 
-0.090412 0.001763 0.047149 -0.000375 -0.998382 -0.056870 
-0.090140 0.001740 0.050365 -0.000247 -0.998269 -0.058805 
-0.091917 0.001941 0.048305 -0.043780 -0.999033 -0.003986 
-0.090941 0.002281 0.041221 0.029714 -0.997457 -0.064783 
-0.073317 0.002580 0.041698 0.042119 -0.992245 -0.116940 
-0.074363 0.002240 0.042941 -0.014270 -0.998911 -0.044411 
-0.076028 0.002565 0.041619 0.041880 -0.998208 -0.042747 
-0.085015 0.001871 0.046720 0.022422 -0.999745 -0.002493 
-0.086447 0.002031 0.047492 0.012985 -0.999423 -0.031377 
-0.087852 0.002050 0.046078 0.008556 -0.999378 -0.034215 
-0.074394 0.002570 0.035645 0.064730 -0.994542 -0.081827 
-0.073457 0.002794 0.036291 0.080245 -0.996041 -0.038240 
-0.074704 0.003071 0.030070 0.057497 -0.998315 -0.007815 
-0.076908 0.002934 0.032685 0.078782 -0.996891 -0.001472 
-0.077442 0.002605 0.028153 0.048813 -0.998802 -0.003351 
-0.091603 0.002436 0.030846 0.036062 -0.999045 -0.024669 
-0.088651 0.002607 0.030347 0.019851 -0.999294 -0.031888 
-0.090117 0.002446 0.033552 0.008515 -0.998313 -0.057437 
-0.073331 0.002500 0.040037 0.042217 -0.998602 -0.031795 
-0.071788 0.002854 0.037861 0.037341 -0.998789 -0.032040 
-0.069992 0.002784 0.040693 0.011384 -0.998347 -0.056328 
-0.070519 0.002177 0.052406 0.003826 -0.992779 -0.119893 
-0.072316 0.002144 0.052095 0.085984 -0.995730 -0.033610 
-0.073306 0.003364 0.025243 -0.004526 -0.999176 -0.040338 
-0.077331 0.002545 0.039518 0.070248 -0.996154 -0.052373 
-0.069717 0.002469 0.045739 -0.003332 -0.997688 -0.067874 
-0.069848 0.002407 0.048479 0.025714 -0.998498 -0.048383 
-0.107141 0.033417 0.049588 -0.991918 0.105999 -0.069737 
-0.107046 0.034844 0.047766 -0.991615 0.126018 -0.028635 
-0.073286 0.002985 0.034902 0.060430 -0.997694 -0.030901 
-0.090319 0.001420 0.061928 0.042895 -0.998491 0.034294 
-0.108065 0.027628 0.049964 -0.998102 0.013376 -0.060117 
-0.107793 0.030537 0.047883 -0.989633 0.142147 -0.020526 
-0.076954 0.002458 0.044075 0.072793 -0.996196 -0.047902 
-0.077086 0.002140 0.047078 0.058171 -0.996357 -0.062356 
-0.083209 0.002150 0.044801 -0.013013 -0.999631 -0.023828 
-0.085972 0.001943 0.044687 0.018889 -0.998605 -0.049306 
-0.095787 0.000840 0.064083 0.038093 -0.996912 0.068668 
-0.092984 0.001811 0.067581 0.072193 -0.996008 0.052496 
-0.087865 0.001790 0.048104 0.059127 -0.997278 -0.044043 
-0.096422 0.001527 0.069306 -0.013415 -0.999215 0.037262 
-0.093394 0.001468 0.052113 -0.004397 -0.998294 -0.058217 
-0.097912 0.001472 0.067070 -0.191746 -0.975531 0.107575 
-0.094464 0.000906 0.059418 0.056341 -0.997180 -0.049579 
-0.098506 0.001611 0.054941 -0.172357 -0.981562 -0.082636 
-0.100066 0.002100 0.056437 -0.362087 -0.931695 -0.028940 
-0.092915 0.002466 0.029841 -0.015872 -0.998597 -0.050521 
-0.091965 0.002562 0.029361 0.049633 -0.997134 -0.057095 
-0.095062 0.002182 0.045317 -0.014396 -0.999514 -0.027649 
-0.084700 0.002493 0.030788 0.002461 -0.999657 -0.026087 
-0.083445 0.002580 0.028199 0.056377 -0.998123 -0.023920 
-0.089149 0.002344 0.038423 0.004823 -0.999984 -0.002963 
-0.100964 0.002335 0.059402 -0.682480 -0.730451 -0.025747 
-0.067366 0.002731 0.039322 -0.008106 -0.999802 -0.018180 
-0.067082 0.002465 0.042715 0.039962 -0.997052 -0.065505 
-0.094746 0.002428 0.037952 0.008667 -0.999858 -0.014440 
-0.093119 0.002260 0.040119 -0.044732 -0.997673 -0.051461 
-0.053202 0.003647 0.030530 0.072151 -0.997383 0.004700 
-0.054054 0.003699 0.033905 -0.018325 -0.999461 -0.027251 
-0.056523 0.004005 0.031989 -0.018019 -0.999837 0.000957 
-0.095184 0.001649 0.051652 -0.074497 -0.994561 -0.072785 
-0.093082 0.001886 0.046190 -0.047014 -0.997864 -0.045354 
-0.063467 0.002987 0.043889 -0.078765 -0.994833 -0.064056 
-0.064178 0.003118 0.042232 0.089974 -0.995092 -0.041184 
-0.087247 0.002067 0.039788 -0.001716 -0.999230 -0.039188 
-0.105142 0.044598 0.041582 -0.985564 0.168951 -0.010916 
-0.099972 0.002142 0.067285 -0.501062 -0.860860 0.088641 
-0.099897 0.002362 0.070927 -0.574699 -0.817699 0.032995 
-0.100984 0.002414 0.061369 -0.730044 -0.683184 0.017174 
-0.095212 0.002169 0.047467 0.003262 -0.999196 -0.039961 
-0.097305 0.001854 0.046129 -0.082910 -0.996085 -0.030661 
-0.101224 0.002537 0.056401 -0.741571 -0.670802 -0.009812 
-0.080227 0.001275 0.054635 0.033691 -0.999069 -0.026943 
-0.082957 0.002117 0.047314 -0.053891 -0.996252 -0.067662 
-0.092107 0.002164 0.040806 0.033854 -0.998287 -0.047708 
-0.101278 0.003097 0.061584 -0.863000 -0.504865 0.018531 
-0.099499 0.002782 0.044937 -0.464276 -0.880627 -0.094572 
-0.099621 0.002398 0.047554 -0.380855 -0.914826 -0.134328 
-0.098484 0.002386 0.043417 -0.426891 -0.904193 -0.014138 
-0.071884 0.002798 0.036042 -0.002273 -0.997868 -0.065220 
-0.070501 0.003023 0.034269 0.022629 -0.997337 -0.069327 
-0.088003 0.002244 0.035994 0.034019 -0.999154 -0.023115 
-0.085768 0.002456 0.035263 0.021418 -0.998321 -0.053813 
-0.092244 0.002271 0.037806 -0.016431 -0.999726 0.016662 
-0.074292 0.002935 0.027259 0.098359 -0.992432 -0.073517 
-0.101073 0.002591 0.050852 -0.621739 -0.781057 -0.058232 
-0.071769 0.002415 0.042576 0.080975 -0.994474 -0.066819 
-0.099573 0.003111 0.042229 -0.577703 -0.814894 -0.046983 
-0.100630 0.003779 0.042977 -0.700536 -0.708613 -0.084364 
-0.100906 0.002697 0.049107 -0.604427 -0.786918 -0.124209 
-0.107225 0.032520 0.047494 -0.985113 0.167653 -0.038009 
-0.071931 0.002760 0.041325 0.043058 -0.997280 -0.059816 
-0.073282 0.002440 0.045003 0.033825 -0.996995 -0.069696 
-0.072458 0.002096 0.047501 0.071361 -0.997055 -0.028081 
-0.074768 0.001932 0.047509 0.019519 -0.997979 -0.060471 
-0.094964 0.002496 0.034635 -0.004526 -0.999819 -0.018456 
-0.090502 0.002152 0.036211 0.019896 -0.999753 -0.009929 
-0.092830 0.002165 0.035446 -0.046819 -0.998281 -0.035269 
-0.100945 0.003549 0.046222 -0.703393 -0.695925 -0.144657 
-0.101966 0.005796 0.042193 -0.889974 -0.451754 -0.062164 
-0.066711 0.002816 0.034761 0.086953 -0.989952 -0.111511 
-0.074081 0.002218 0.048881 0.069378 -0.997580 0.004482 
-0.075964 0.001982 0.049254 -0.004610 -0.999958 -0.007923 
-0.107096 0.031820 0.042817 -0.988899 0.127588 -0.076156 
-0.107705 0.029229 0.045069 -0.994723 0.056393 -0.085714 
-0.079822 0.002223 0.038317 0.025088 -0.999402 -0.023790 
-0.093403 0.002432 0.032544 -0.022670 -0.999298 -0.029829 
-0.081796 0.002592 0.036140 -0.017556 -0.998061 -0.059716 
-0.070977 0.003305 0.026425 0.057756 -0.997707 -0.035290 
-0.070329 0.003249 0.029675 0.048519 -0.997817 -0.044795 
-0.083623 0.002337 0.034209 0.036709 -0.999015 -0.024941 
-0.069703 0.003106 0.032232 0.078019 -0.996649 -0.024578 
-0.066807 0.003251 0.031637 0.062274 -0.996073 -0.062937 
-0.079510 0.001464 0.050896 0.126133 -0.990122 -0.061235 
-0.076930 0.001741 0.054283 0.045519 -0.993802 -0.101422 
-0.078011 0.001741 0.052194 0.136717 -0.986418 -0.091041 
-0.060794 0.003265 0.043417 0.107787 -0.991077 -0.078412 
-0.062224 0.002807 0.044664 0.043582 -0.998456 -0.034453 
-0.062406 0.002888 0.042926 0.042281 -0.995569 -0.083996 
-0.076644 0.002075 0.051079 0.004845 -0.997299 -0.073289 
-0.082246 0.002756 0.030826 0.031500 -0.998935 -0.033715 
-0.071123 0.001925 0.050674 0.062123 -0.997192 -0.041809 
-0.068816 0.002307 0.050609 -0.015233 -0.997186 -0.073405 
-0.073097 0.002755 0.032596 0.029137 -0.998765 -0.040246 
-0.106487 0.035776 0.040472 -0.991959 0.101433 -0.075689 
-0.078741 0.002232 0.036766 0.202513 -0.978225 -0.045435 
-0.079708 0.002244 0.035462 -0.038975 -0.996346 -0.075997 
-0.093270 0.002349 0.030958 -0.067652 -0.997399 -0.024882 
-0.061710 0.003601 0.034375 0.039427 -0.998927 -0.024310 
-0.060880 0.003441 0.035867 0.039277 -0.998071 -0.048083 
-0.056645 0.003777 0.037108 0.010647 -0.999540 -0.028413 
-0.055791 0.003610 0.040470 0.025587 -0.998018 -0.057491 
-0.059189 0.003629 0.037776 0.068046 -0.996751 -0.043096 
-0.079218 0.002252 0.040023 0.150058 -0.987579 -0.046578 
-0.087322 0.002382 0.034246 0.051219 -0.998225 -0.030386 
-0.087424 0.002307 0.032556 0.024655 -0.998911 -0.039602 
-0.077746 0.002065 0.049810 0.150719 -0.987976 -0.034454 
-0.085905 0.002627 0.033193 0.016449 -0.999678 -0.019297 
-0.086410 0.002519 0.031413 0.025779 -0.998376 -0.050792 
-0.093728 0.001899 0.049455 -0.031954 -0.995554 -0.088608 
-0.067779 0.002628 0.037145 -0.027352 -0.999625 -0.001286 
-0.077534 0.002610 0.037267 0.111516 -0.992585 -0.048362 
-0.078104 0.002717 0.035339 0.182727 -0.981898 -0.049873 
-0.081198 0.002703 0.033607 -0.004479 -0.999429 -0.033488 
-0.078887 0.002394 0.033551 0.127628 -0.991281 -0.032763 
-0.079691 0.002402 0.031211 -0.014306 -0.999349 -0.033125 
-0.090851 0.002553 0.029429 -0.009525 -0.999501 -0.030133 
-0.064520 0.003514 0.032848 0.120750 -0.991361 -0.051213 
-0.062576 0.003446 0.032907 0.031236 -0.999060 -0.030042 
-0.064042 0.003589 0.034082 0.117490 -0.992748 -0.025449 
-0.057126 0.003694 0.014912 0.185142 -0.971344 -0.149038 
-0.055903 0.004336 0.013686 0.044433 -0.997514 -0.054699 
-0.055659 0.004264 0.017373 0.143665 -0.989615 -0.004690 
-0.061801 0.003419 0.037734 0.048821 -0.997033 -0.059504 
-0.060858 0.003178 0.040794 0.065125 -0.996220 -0.057479 
-0.079862 0.002689 0.033521 -0.133476 -0.990349 -0.037335 
-0.082024 0.001265 0.063585 -0.053224 -0.998415 -0.018277 
-0.060432 0.002891 0.045297 0.019468 -0.997522 -0.067610 
-0.072380 0.002230 0.049386 0.022408 -0.996152 -0.084728 
-0.065654 0.002912 0.039964 0.167684 -0.985706 -0.016287 
-0.091549 0.002451 0.029908 -0.002678 -0.996436 -0.084310 
-0.102887 0.018530 0.056826 -0.972800 0.027670 0.229988 
-0.103485 0.019235 0.053908 -0.942292 -0.326530 0.073919 
-0.103043 0.015639 0.057955 -0.991506 0.050156 0.120001 
-0.068642 0.003354 0.027397 0.034886 -0.997690 -0.058281 
-0.086381 0.002639 0.030062 -0.024467 -0.998965 -0.038334 
-0.103134 0.017165 0.049718 -0.999875 -0.014106 -0.007099 
-0.103523 0.020044 0.049573 -0.924415 -0.344364 -0.163920 
-0.102974 0.020667 0.045067 -0.994582 -0.090754 -0.050689 
-0.107630 0.024574 0.049013 -0.818929 -0.572534 -0.039505 
-0.107697 0.025864 0.045083 -0.977621 -0.196455 -0.075252 
-0.107297 0.024237 0.046600 -0.619007 -0.780312 -0.089129 
-0.103932 0.023186 0.040531 -0.843509 -0.524673 0.114940 
-0.103328 0.020767 0.040576 -0.992800 -0.058555 0.104498 
-0.069063 0.002912 0.038390 -0.042321 -0.999026 0.012521 
-0.103267 0.021921 0.042429 -0.972678 -0.215775 0.085671 
-0.076248 0.002836 0.025141 0.140956 -0.984274 -0.106468 
-0.075007 0.003389 0.025158 0.178679 -0.981192 -0.073055 
-0.105130 0.024155 0.041615 -0.369903 -0.928991 0.012125 
-0.103689 0.023453 0.043243 -0.815827 -0.578170 -0.012079 
-0.105280 0.024348 0.044328 -0.274334 -0.960983 -0.035404 
-0.059381 0.003858 0.030659 0.041600 -0.998527 0.034841 
-0.059543 0.003698 0.032955 0.063919 -0.997342 -0.034966 
-0.062720 0.003729 0.031075 0.060667 -0.998158 -0.001043 
-0.103396 0.015291 0.042413 -0.998250 0.034327 0.048150 
-0.106816 0.023965 0.051720 -0.744270 -0.654114 -0.134896 
-0.106501 0.022523 0.053239 -0.764928 -0.642223 -0.049341 
-0.107376 0.023825 0.054311 -0.809062 -0.587443 0.018154 
-0.105144 0.021597 0.051298 -0.753864 -0.621538 -0.213025 
-0.104100 0.022552 0.048175 -0.816766 -0.505029 -0.278996 
-0.103938 0.023457 0.045826 -0.775310 -0.606520 -0.176146 
-0.065594 0.003388 0.028219 0.052995 -0.997200 -0.052757 
-0.106732 0.024287 0.045288 -0.436172 -0.893188 -0.109403 
-0.106669 0.024303 0.042928 -0.490165 -0.871498 -0.015150 
-0.105815 0.024092 0.047533 -0.400509 -0.902296 -0.159548 
-0.103301 0.009227 0.046236 -0.990067 -0.140215 -0.010324 
-0.105377 0.022998 0.049307 -0.699402 -0.646854 -0.304002 
-0.105977 0.023539 0.050394 -0.693083 -0.682476 -0.232084 
-0.065904 0.002119 0.051013 0.118787 -0.991562 -0.051917 
-0.076619 0.003422 0.023159 0.105735 -0.984380 -0.140773 
-0.070091 0.002690 0.043433 0.013661 -0.998922 -0.044359 
-0.064686 0.002719 0.048072 0.127452 -0.989666 -0.065713 
-0.107568 0.031264 0.045798 -0.971265 0.224002 -0.080419 
-0.107040 0.032411 0.045313 -0.989300 0.137807 -0.047905 
-0.106355 0.024483 0.040545 -0.428709 -0.899390 -0.085473 
-0.071342 0.003220 0.021623 0.037779 -0.996553 -0.073852 
-0.105817 0.023097 0.056243 -0.540074 -0.748075 0.385621 
-0.104911 0.021238 0.055092 -0.726155 -0.624072 0.288501 
-0.061952 0.002950 0.046891 0.049231 -0.997713 -0.046315 
-0.103377 0.012780 0.050306 -0.999550 0.026849 0.013351 
-0.069701 0.002775 0.036410 -0.027821 -0.999321 -0.024154 
-0.103387 0.008600 0.057554 -0.994859 -0.089823 0.046774 
-0.107188 0.033781 0.045191 -0.995424 0.089885 -0.032424 
-0.107438 0.025290 0.041260 -0.941525 -0.335035 -0.035816 
-0.063569 0.002657 0.047210 0.041408 -0.994249 -0.098763 
-0.063083 0.002624 0.048415 0.048846 -0.997939 -0.041618 
-0.056648 0.003831 0.034633 0.002643 -0.999120 -0.041853 
-0.063602 0.003990 0.025028 0.050090 -0.997981 -0.039041 
-0.054199 0.003711 0.026854 -0.009761 -0.997413 -0.071220 
-0.059775 0.003137 0.044364 -0.070088 -0.984581 -0.160276 
-0.058938 0.002874 0.045005 0.117625 -0.991246 -0.059969 
-0.068356 0.003249 0.033302 -0.010793 -0.994809 -0.101186 
-0.056856 0.003768 0.016836 0.174624 -0.984280 0.026438 
-0.057179 0.003792 0.018918 0.091906 -0.995403 0.026962 
-0.062787 0.003912 0.019063 0.090105 -0.994078 -0.060745 
-0.062130 0.004022 0.021112 0.022185 -0.997298 -0.070026 
-0.101509 0.019477 0.063443 -0.997331 0.014869 0.071480 
-0.101459 0.016692 0.066546 -0.991237 0.105402 0.079624 
-0.103532 0.022877 0.058275 -0.716756 -0.504488 0.481408 
-0.103112 0.020427 0.057085 -0.882464 -0.306537 0.356781 
-0.102001 0.021303 0.060048 -0.952213 -0.200343 0.230550 
-0.102141 0.012604 0.066751 -0.992176 0.089770 0.086769 
-0.102266 0.019075 0.059085 -0.972152 0.053151 0.228243 
-0.104883 0.024478 0.058876 -0.287448 -0.884842 0.366645 
-0.106919 0.034848 0.042675 -0.991206 0.109436 -0.074398 
-0.106555 0.036004 0.043456 -0.991267 0.118337 0.058194 
-0.103626 0.024085 0.060009 -0.632747 -0.724308 0.273880 
-0.102677 0.023283 0.060814 -0.837966 -0.524335 0.151283 
-0.060048 0.004044 0.025537 0.025231 -0.999502 -0.018965 
-0.058479 0.003951 0.023810 0.087944 -0.993954 0.065745 
-0.056247 0.004096 0.021899 0.086834 -0.996210 0.004975 
-0.098665 0.001833 0.069924 -0.253179 -0.967413 0.003483 
-0.100707 0.003050 0.074288 -0.729107 -0.684377 0.005533 
-0.106535 0.033377 0.040291 -0.990038 0.120486 -0.072859 
-0.060613 0.003660 0.023786 -0.028895 -0.998624 0.043761 
-0.054014 0.004153 0.019841 -0.034241 -0.999410 0.002582 
-0.057718 0.003813 0.021567 0.056662 -0.998321 0.011988 
-0.054304 0.004089 0.023464 0.013543 -0.998800 -0.047077 
-0.052196 0.004149 0.024253 0.079442 -0.995865 -0.044065 
-0.057786 0.003370 0.044384 0.120590 -0.987545 -0.101060 
-0.059769 0.003747 0.034513 0.059802 -0.994618 -0.084608 
-0.058309 0.003596 0.035632 0.066349 -0.996502 -0.050819 
-0.058338 0.003810 0.034438 0.028972 -0.998261 -0.051339 
-0.061440 0.004393 0.018606 -0.016287 -0.999864 0.002715 
-0.059455 0.003728 0.022189 -0.001699 -0.999169 -0.040713 
-0.053849 0.004081 0.015806 -0.095707 -0.995156 -0.022475 
-0.052068 0.003914 0.017543 0.128698 -0.991590 0.013610 
-0.051919 0.004173 0.021134 0.081571 -0.996660 -0.003959 
-0.107965 0.025135 0.052039 -0.925305 -0.371782 -0.074762 
-0.052470 0.003976 0.015062 0.098752 -0.991298 -0.087039 
-0.050996 0.004437 0.014990 0.141648 -0.989368 -0.032962 
-0.101659 0.053968 -0.033090 -0.928551 0.363674 -0.074394 
-0.101510 0.053378 -0.034511 -0.939875 0.308824 -0.145818 
-0.100836 0.055608 -0.033091 -0.963608 0.266606 -0.019493 
-0.101543 0.053983 -0.031135 -0.966592 0.255788 0.016486 
-0.100365 0.057675 -0.030452 -0.970656 0.239681 -0.019502 
-0.100076 0.059480 -0.029973 -0.979638 0.199562 -0.022016 
-0.100223 0.058593 -0.033166 -0.967770 0.251754 0.006416 
-0.094726 0.064299 -0.029606 -0.060814 0.998026 0.015654 
-0.095424 0.064483 -0.027838 -0.089402 0.995304 0.037100 
-0.093527 0.064383 -0.028446 -0.016258 0.999453 0.028795 
-0.099667 0.060505 -0.032708 -0.963654 0.264642 -0.036535 
-0.086681 0.064863 -0.027046 -0.011283 0.997680 0.067132 
-0.089047 0.064678 -0.027306 -0.079781 0.996164 0.035954 
-0.087114 0.064584 -0.024315 -0.057110 0.997590 0.039410 
-0.100985 0.056156 -0.029399 -0.952670 0.300491 -0.046095 
-0.072364 0.064772 -0.030110 -0.012559 0.999808 0.015038 
-0.073458 0.064868 -0.028785 0.004312 0.999867 -0.015733 
-0.072219 0.064730 -0.028242 -0.047578 0.998215 -0.036112 
-0.099882 0.059215 -0.042098 -0.957852 0.281448 -0.057505 
-0.099738 0.059658 -0.044346 -0.967656 0.251745 -0.016340 
-0.100450 0.056539 -0.042629 -0.964137 0.261518 -0.045268 
-0.084441 0.063785 0.002790 -0.019059 0.998918 0.042415 
-0.083594 0.064001 0.000468 -0.072128 0.992847 0.095147 
-0.085179 0.063946 -0.000114 -0.035576 0.997773 0.056423 
-0.095846 0.063547 -0.006959 -0.143380 0.988558 0.046862 
-0.091382 0.063567 -0.002589 -0.101033 0.993892 0.044407 
-0.092531 0.063433 0.000203 -0.077803 0.996861 0.014643 
-0.089952 0.063792 -0.000573 -0.064769 0.997504 0.028136 
-0.096056 0.064952 -0.057967 -0.071832 0.989639 0.124318 
-0.097722 0.064881 -0.058263 -0.379808 0.919459 0.101695 
-0.097267 0.064802 -0.056512 -0.164035 0.985400 0.045591 
-0.075300 0.064694 -0.022309 -0.053670 0.997991 0.033670 
-0.074567 0.064684 -0.020834 -0.027967 0.999603 -0.003348 
-0.072956 0.064700 -0.022144 0.023214 0.998263 0.054147 
-0.098769 0.061959 -0.049965 -0.914860 0.403529 0.013997 
-0.099561 0.060294 -0.053247 -0.943491 0.331210 0.011185 
-0.099608 0.059907 -0.048655 -0.959157 0.282481 0.014897 
-0.101433 0.055390 -0.021089 -0.968564 0.248743 0.003368 
-0.100754 0.056816 -0.017504 -0.965998 0.256501 0.032475 
-0.069955 0.064938 -0.033491 -0.017083 0.998775 0.046443 
-0.098501 0.063177 -0.052325 -0.862306 0.496770 0.098225 
-0.098964 0.062736 -0.055046 -0.952803 0.303577 0.002567 
-0.096436 0.064231 -0.030437 -0.163329 0.986546 0.007142 
-0.094632 0.064321 -0.031649 -0.040915 0.998802 0.026839 
-0.095257 0.064574 -0.032639 -0.084958 0.995988 0.028095 
-0.097739 0.064009 -0.037524 -0.436326 0.899171 -0.033332 
-0.099044 0.062696 -0.038045 -0.893068 0.448469 -0.036129 
-0.098214 0.063979 -0.035616 -0.527797 0.848626 -0.035549 
-0.083695 0.065458 -0.045785 -0.032045 0.989555 -0.140552 
-0.074313 0.064767 -0.019192 0.008805 0.999562 0.028252 
-0.072230 0.064539 -0.019327 -0.011252 0.999806 -0.016137 
-0.073043 0.064541 -0.020344 0.092874 0.995653 0.007009 
-0.092134 0.064279 -0.022670 -0.069796 0.997109 0.030021 
-0.089766 0.064415 -0.023099 -0.061355 0.998041 0.012214 
-0.091967 0.064282 -0.025025 -0.059920 0.997632 0.033750 
-0.093732 0.065401 -0.059461 0.026631 0.994331 0.102939 
-0.095990 0.065159 -0.060301 -0.033215 0.982722 0.182085 
-0.093659 0.064464 -0.030824 -0.027491 0.999587 -0.008429 
-0.095043 0.064498 -0.030632 -0.082798 0.996542 0.006980 
-0.097355 0.065726 -0.061879 -0.267604 0.953788 0.136660 
-0.097322 0.065248 -0.059790 -0.231833 0.958541 0.165686 
-0.094706 0.064215 -0.023238 -0.070619 0.996359 0.047772 
-0.078107 0.065402 -0.037721 -0.025901 0.994028 0.106011 
-0.071481 0.064586 -0.015565 -0.155108 0.987857 -0.008990 
-0.072387 0.064443 -0.013991 -0.041009 0.999063 -0.013820 
-0.069917 0.064890 -0.016384 -0.110287 0.993876 0.006893 
-0.087943 0.064400 -0.021685 -0.031433 0.993510 0.109312 
-0.088400 0.064582 -0.022830 -0.037202 0.997625 0.057974 
-0.074289 0.064682 -0.026339 -0.042283 0.998796 0.024859 
-0.074299 0.064837 -0.024564 -0.024754 0.999474 0.020945 
-0.072823 0.064875 -0.026652 -0.015412 0.999568 0.025041 
-0.093516 0.064569 -0.029667 -0.025076 0.999060 0.035348 
-0.093851 0.064263 -0.026791 -0.025266 0.996981 0.073426 
-0.095725 0.064117 -0.025432 -0.093398 0.994231 0.052741 
-0.086940 0.064036 -0.000994 -0.077506 0.996927 0.011355 
-0.088462 0.063827 -0.002816 -0.055505 0.998382 0.012320 
-0.088269 0.063682 -0.000207 -0.095681 0.994937 0.030742 
-0.086874 0.065064 -0.048140 0.018649 0.990425 -0.136788 
-0.088269 0.064703 -0.050235 -0.021704 0.999457 -0.024773 
-0.090277 0.065171 -0.048249 -0.028235 0.995225 -0.093438 
-0.098587 0.064097 -0.056961 -0.886004 0.461800 0.041685 
-0.098492 0.063731 -0.031240 -0.606027 0.795328 0.013613 
-0.097043 0.064069 -0.033508 -0.230137 0.972910 0.021968 
-0.098761 0.063602 -0.033553 -0.714970 0.699154 -0.001323 
-0.100182 0.058536 -0.051321 -0.962787 0.264938 0.053382 
-0.088812 0.063870 -0.005345 -0.034224 0.998991 0.029067 
-0.087008 0.063822 -0.005092 -0.108278 0.992245 0.061033 
-0.075731 0.064498 -0.021079 -0.045361 0.998384 0.034242 
-0.100504 0.056530 -0.047429 -0.956062 0.292473 -0.020129 
-0.101595 0.052657 -0.035764 -0.967620 0.250627 -0.029969 
-0.076236 0.064194 -0.008617 -0.057540 0.997773 0.033727 
-0.074770 0.064415 -0.006186 -0.032893 0.999046 0.028724 
-0.074071 0.064500 -0.008697 -0.016403 0.999820 0.009545 
-0.099719 0.059906 -0.036645 -0.955164 0.295976 -0.007699 
-0.099359 0.061755 -0.034828 -0.950196 0.311580 -0.006754 
-0.099463 0.060512 -0.056191 -0.886568 0.462144 -0.020478 
-0.074905 0.064482 -0.011415 -0.026721 0.999089 0.033262 
-0.100679 0.056832 -0.024194 -0.960714 0.275352 -0.034791 
-0.101117 0.056079 -0.026342 -0.949504 0.313733 -0.003707 
-0.101369 0.054899 -0.024155 -0.960373 0.277300 -0.028071 
-0.099025 0.061610 -0.027292 -0.921231 0.385814 0.049807 
-0.099331 0.061297 -0.025823 -0.815000 0.551648 -0.177365 
-0.099034 0.062032 -0.025816 -0.964883 0.237063 -0.113146 
-0.100247 0.057051 -0.049525 -0.969943 0.239196 0.044666 
-0.090714 0.063418 0.003147 -0.056154 0.997320 0.046910 
-0.092572 0.063449 0.002139 -0.099102 0.993498 0.056037 
-0.079450 0.064564 -0.023602 0.072131 0.996774 0.035192 
-0.081124 0.064825 -0.021816 0.024117 0.999601 -0.014728 
-0.078059 0.064527 -0.020882 0.033263 0.999356 0.013455 
-0.093257 0.064676 -0.050190 -0.004925 0.999355 -0.035568 
-0.095532 0.064845 -0.052144 -0.086878 0.990023 0.110936 
-0.095911 0.064621 -0.049603 -0.251361 0.967129 0.038453 
-0.098445 0.063897 -0.029074 -0.543031 0.839574 0.015250 
-0.088672 0.063457 0.003933 -0.082215 0.995748 0.041556 
-0.089918 0.063608 0.004825 0.001124 0.999942 0.010684 
-0.097330 0.063935 -0.027305 -0.266482 0.962119 0.057570 
-0.098055 0.063808 -0.025599 -0.390273 0.920449 0.021451 
-0.100503 0.057859 -0.039611 -0.962866 0.267048 -0.039671 
-0.101197 0.054890 -0.040174 -0.974816 0.221089 -0.029221 
-0.076819 0.064356 -0.013378 -0.082890 0.995581 0.044137 
-0.078339 0.064466 -0.014768 0.041002 0.998211 0.043512 
-0.078468 0.064239 -0.013047 0.076958 0.996401 0.035534 
-0.098984 0.061154 -0.055691 -0.963993 0.255111 -0.075066 
-0.091813 0.064360 -0.017629 -0.020486 0.999510 0.023671 
-0.093475 0.064010 -0.015588 -0.112614 0.990614 0.077475 
-0.090887 0.064033 -0.013705 -0.054309 0.997001 0.055137 
-0.100809 0.058238 -0.019380 -0.956843 0.288641 0.033745 
-0.076802 0.064393 -0.014656 -0.076484 0.994377 0.073237 
-0.075116 0.064720 -0.014845 -0.014943 0.999615 0.023378 
-0.077241 0.064502 -0.015792 -0.057759 0.998263 0.011603 
-0.076153 0.064489 -0.017867 -0.048753 0.998797 0.005356 
-0.075662 0.064596 -0.019942 -0.073259 0.997208 -0.014443 
-0.071868 0.064626 -0.024077 -0.040303 0.998419 0.039187 
-0.101820 0.052696 -0.024825 -0.963392 0.262390 -0.055027 
-0.101847 0.054006 -0.023026 -0.967465 0.241855 -0.074286 
-0.093445 0.063718 -0.010785 -0.054686 0.997539 0.043885 
-0.093300 0.063468 -0.009313 -0.078498 0.995384 0.055221 
-0.091460 0.063880 -0.009184 -0.091873 0.994182 0.056234 
-0.094487 0.063432 -0.005007 -0.052331 0.997386 0.049820 
-0.070180 0.064846 -0.021599 -0.086168 0.996115 0.018168 
-0.071947 0.064462 -0.021042 -0.071085 0.994625 0.075281 
-0.079053 0.064420 -0.017151 0.046278 0.998773 0.017634 
-0.092861 0.064693 -0.041830 -0.078679 0.993687 0.079973 
-0.095892 0.064486 -0.042563 -0.138018 0.988564 0.060768 
-0.095500 0.064368 -0.040072 -0.098524 0.994653 0.030954 
-0.086277 0.065166 -0.050937 -0.034102 0.995433 0.089165 
-0.071525 0.064791 -0.022122 -0.062879 0.996663 0.052053 
-0.090985 0.064701 -0.051015 -0.042757 0.999047 -0.008777 
-0.084978 0.064766 -0.033406 -0.100787 0.994060 0.041060 
-0.083782 0.064852 -0.031293 -0.074475 0.997024 0.019935 
-0.083141 0.065255 -0.034877 -0.071722 0.997424 -0.000687 
-0.086248 0.064940 -0.029458 -0.016624 0.999588 -0.023410 
-0.088687 0.064590 -0.037081 -0.019507 0.999409 -0.028287 
-0.088658 0.064924 -0.034804 0.009024 0.999200 0.038963 
-0.086112 0.064707 -0.035453 -0.065434 0.997486 0.027205 
-0.099125 0.062348 -0.032488 -0.932572 0.360968 -0.003443 
-0.074744 0.064652 -0.028909 -0.030402 0.999534 0.002846 
-0.076376 0.064780 -0.029133 -0.020377 0.999052 0.038463 
-0.074658 0.064899 -0.027648 -0.037809 0.999272 0.005155 
-0.101733 0.053243 -0.026794 -0.984253 0.173716 -0.032682 
-0.101909 0.052219 -0.026825 -0.951190 0.307430 -0.026899 
-0.098887 0.062461 -0.029313 -0.932421 0.361132 0.013222 
-0.099712 0.061244 -0.029555 -0.919992 0.391692 0.013860 
-0.093019 0.064451 -0.038109 -0.048583 0.998307 -0.031968 
-0.093579 0.064831 -0.035475 -0.068746 0.997634 0.001180 
-0.091205 0.064885 -0.035737 -0.015817 0.998878 -0.044634 
-0.094227 0.064943 -0.046040 -0.123848 0.992276 0.007105 
-0.096019 0.063745 -0.016220 -0.269923 0.962055 0.039890 
-0.097592 0.062877 -0.013330 -0.449825 0.890501 0.068304 
-0.095364 0.063666 -0.012936 -0.172243 0.984559 0.031254 
-0.086928 0.063934 0.001858 -0.071496 0.995973 0.054099 
-0.089161 0.063633 0.001582 -0.051144 0.997062 0.057024 
-0.084819 0.064726 -0.027313 -0.018807 0.999579 0.022078 
-0.083311 0.064940 -0.024657 -0.039175 0.998870 0.026891 
-0.081114 0.064959 -0.028921 0.015295 0.999682 0.020041 
-0.101404 0.054435 -0.027987 -0.976448 0.213168 -0.033296 
-0.076661 0.064531 -0.023919 -0.037581 0.998774 0.032234 
-0.088688 0.065338 -0.044774 -0.063374 0.997780 0.020458 
-0.089435 0.064466 -0.024912 -0.069317 0.996312 0.050565 
-0.095017 0.064481 -0.034176 -0.112895 0.992128 0.054200 
-0.096042 0.064467 -0.036062 -0.148019 0.988942 -0.009214 
-0.092245 0.064605 -0.051148 0.032926 0.992228 0.120001 
-0.086894 0.064634 -0.033697 -0.019058 0.999808 0.004576 
-0.091334 0.063567 0.001602 -0.100075 0.994547 0.029349 
-0.078552 0.064077 -0.004457 0.037521 0.997148 0.065485 
-0.078477 0.064099 -0.006908 0.025483 0.999247 0.029259 
-0.080978 0.064445 -0.004978 0.082878 0.995522 0.045471 
-0.066848 0.064866 -0.025848 0.029847 0.999532 0.006723 
-0.092120 0.064541 -0.033207 -0.036123 0.996517 0.075165 
-0.086259 0.064867 -0.049485 0.004832 0.999298 0.037150 
-0.086501 0.063698 0.005825 -0.062997 0.997394 0.035177 
-0.085728 0.064590 -0.031721 -0.010346 0.999530 -0.028865 
-0.081767 0.064848 -0.038071 -0.046484 0.996780 0.065336 
-0.080319 0.065211 -0.035615 0.017624 0.999748 0.013888 
-0.088251 0.064756 -0.031288 -0.053492 0.998489 -0.012577 
-0.083857 0.064492 -0.009133 -0.106041 0.990507 0.087477 
-0.081656 0.064525 -0.008402 0.060701 0.996283 0.061123 
-0.083437 0.065093 -0.011925 -0.045072 0.998846 0.016617 
-0.098779 0.062896 -0.041968 -0.858932 0.510697 -0.037742 
-0.099461 0.060671 -0.041324 -0.958860 0.281835 -0.034003 
-0.090104 0.064531 -0.029194 -0.086234 0.996161 -0.015067 
-0.070423 0.065056 -0.027580 -0.022147 0.999712 0.009253 
-0.080821 0.065117 -0.032714 0.041244 0.998144 0.044806 
-0.078677 0.064674 -0.027509 0.040827 0.999102 0.011304 
-0.076224 0.064724 -0.026371 -0.027450 0.999099 0.032364 
-0.098755 0.062769 -0.034849 -0.913200 0.406949 -0.021414 
-0.067068 0.065008 -0.020584 0.037721 0.999269 -0.006282 
-0.065166 0.064774 -0.021847 0.026424 0.999426 0.021178 
-0.065426 0.064729 -0.023915 0.030476 0.999528 -0.003789 
-0.097873 0.063551 -0.049442 -0.682877 0.728693 0.051823 
-0.098845 0.062254 -0.046080 -0.884395 0.465315 -0.036433 
-0.097065 0.064144 -0.047154 -0.498251 0.866989 -0.008740 
-0.075561 0.064812 -0.031743 -0.002991 0.997033 -0.076923 
-0.074731 0.064904 -0.030302 0.007003 0.998473 0.054791 
-0.074012 0.064964 -0.031853 0.008450 0.999228 -0.038356 
-0.088973 0.064581 -0.033394 -0.013114 0.998697 0.049327 
-0.085144 0.064896 -0.037899 -0.078041 0.994879 0.064234 
-0.093926 0.063254 -0.002478 -0.050444 0.998488 0.021837 
-0.081466 0.064831 -0.023606 0.032518 0.997807 0.057659 
-0.096724 0.064709 -0.052772 -0.240229 0.930472 0.276607 
-0.097566 0.064877 -0.054019 -0.456310 0.887764 0.060465 
-0.097045 0.064333 -0.051737 -0.453638 0.870975 0.188718 
-0.077306 0.064358 -0.012070 -0.047895 0.997895 -0.043725 
-0.078974 0.064366 -0.010786 0.070934 0.996990 0.031292 
-0.079697 0.065600 -0.040578 -0.042067 0.988094 0.147986 
-0.091914 0.064387 -0.030118 -0.030523 0.999286 0.022285 
-0.097549 0.064213 -0.044025 -0.497786 0.865084 -0.061954 
-0.077958 0.064881 -0.031656 0.026798 0.999630 0.004723 
-0.077892 0.064774 -0.034650 0.051478 0.994580 0.090335 
-0.092853 0.064944 -0.052511 0.007164 0.996597 0.082113 
-0.100615 0.056484 -0.045337 -0.955884 0.293682 -0.006097 
-0.099974 0.058036 -0.046749 -0.965257 0.260907 -0.014390 
-0.084394 0.064491 -0.006274 -0.092278 0.994980 0.038717 
-0.093438 0.065040 -0.055879 -0.019857 0.999204 0.034614 
-0.090371 0.063722 0.001710 -0.029787 0.998111 0.053735 
-0.082662 0.064382 -0.002088 -0.001549 0.998477 0.055154 
-0.091631 0.064516 -0.027819 -0.065706 0.997706 0.016278 
-0.087148 0.064174 -0.014632 -0.096496 0.995333 -0.000897 
-0.087020 0.063830 -0.018558 -0.042270 0.998697 0.028584 
-0.084301 0.064711 -0.021261 -0.087348 0.994507 0.057681 
-0.086278 0.064852 -0.032774 0.008107 0.999817 0.017351 
-0.071616 0.064533 -0.017403 -0.096835 0.995169 0.016161 
-0.072578 0.064480 -0.015603 0.035827 0.999268 0.013422 
-0.099960 0.059718 -0.019050 -0.926638 0.375918 0.005274 
-0.100308 0.058777 -0.017280 -0.958257 0.285556 0.014191 
-0.099880 0.060518 -0.016211 -0.914140 0.404423 -0.028124 
-0.099601 0.061738 -0.024246 -0.898759 0.437464 0.029287 
-0.099942 0.060434 -0.026615 -0.938807 0.343896 -0.019422 
-0.100326 0.059099 -0.022683 -0.958604 0.284293 -0.016026 
-0.100917 0.056814 -0.036023 -0.972686 0.231815 0.011972 
-0.099285 0.061575 -0.020331 -0.841159 0.539097 0.042730 
-0.096046 0.064582 -0.055736 -0.051164 0.998688 0.002009 
-0.083883 0.065619 -0.041485 -0.076146 0.991753 0.103087 
-0.088722 0.064815 -0.040232 -0.084022 0.991208 0.102214 
-0.096230 0.064390 -0.038355 -0.110388 0.993499 -0.027845 
-0.098976 0.063130 -0.026956 -0.853802 0.520592 0.002537 
-0.085869 0.064200 -0.009831 -0.154622 0.987679 0.024131 
-0.085782 0.064380 -0.012075 -0.246579 0.967244 0.060321 
-0.087813 0.063974 -0.011877 -0.043269 0.999055 0.004203 
-0.100336 0.058101 -0.027118 -0.968435 0.248515 -0.019352 
-0.085879 0.063991 -0.003025 -0.106760 0.993979 0.024654 
-0.071900 0.064890 -0.034368 -0.047667 0.996510 0.068526 
-0.098846 0.061724 -0.010307 -0.744094 0.667408 0.029843 
-0.100186 0.060056 -0.012328 -0.917747 0.396590 0.021359 
-0.090410 0.064420 -0.020815 -0.014562 0.998262 0.057108 
-0.070651 0.064909 -0.031484 -0.024108 0.999640 0.011753 
-0.071249 0.065033 -0.033081 -0.036442 0.999294 0.009132 
-0.072558 0.064833 -0.032458 -0.041744 0.999084 0.009403 
-0.097819 0.063811 -0.023011 -0.465028 0.877963 0.113712 
-0.098875 0.062832 -0.024994 -0.835953 0.542602 0.082254 
-0.074867 0.064693 -0.033427 -0.008728 0.999582 0.027563 
-0.101113 0.054592 -0.038042 -0.982342 0.187066 -0.003206 
-0.101194 0.054186 -0.035772 -0.979505 0.201280 0.007544 
-0.102072 0.052541 -0.022676 -0.978404 0.206609 0.006274 
-0.095135 0.064933 -0.054056 -0.048865 0.998406 -0.028258 
-0.077512 0.064735 -0.030463 -0.062397 0.994919 0.079013 
-0.078623 0.064773 -0.029422 0.049710 0.998109 0.036153 
-0.073601 0.064579 -0.017092 0.027671 0.999471 0.017095 
-0.095885 0.063694 -0.010066 -0.187800 0.982173 -0.008181 
-0.094560 0.063616 -0.008837 0.049916 0.997527 0.049482 
-0.080597 0.064731 -0.014387 0.080839 0.996599 -0.015958 
-0.081829 0.064549 -0.016972 0.006509 0.999678 0.024537 
-0.097655 0.064016 -0.040281 -0.428065 0.903717 0.007458 
-0.090596 0.063546 0.000839 -0.075725 0.997122 0.003550 
-0.089157 0.064068 -0.010441 -0.052126 0.997770 0.041683 
-0.087562 0.064233 -0.010293 -0.041347 0.999131 0.005341 
-0.090435 0.063855 -0.004535 -0.051372 0.998334 0.026272 
-0.090628 0.063721 -0.006830 -0.066707 0.997771 0.002026 
-0.087574 0.064103 -0.007110 -0.104593 0.993933 0.034013 
-0.064602 0.064912 -0.023630 -0.014287 0.999893 0.003137 
-0.083706 0.064598 -0.018363 -0.136264 0.989456 0.049085 
-0.083875 0.064596 -0.015820 -0.097046 0.992861 -0.069349 
-0.079217 0.063906 -0.002686 0.067094 0.997307 0.029635 
-0.101591 0.054473 -0.025932 -0.977639 0.210101 -0.008971 
-0.100055 0.057903 -0.044780 -0.962717 0.270200 -0.012974 
-0.095941 0.063911 -0.021450 -0.123282 0.990978 0.052572 
-0.093313 0.063992 -0.020950 -0.077196 0.997016 -0.000356 
-0.081315 0.064894 -0.019361 0.025872 0.998408 0.050127 
-0.091695 0.063928 -0.011956 -0.120830 0.992100 0.033738 
-0.093001 0.063746 -0.012859 -0.073921 0.995696 0.055904 
-0.097614 0.063018 -0.008268 -0.525234 0.850950 0.003705 
-0.097225 0.063013 -0.010996 -0.488493 0.871420 -0.044753 
-0.093330 0.063532 -0.007264 -0.066232 0.997798 -0.003536 
-0.092434 0.063738 -0.004935 -0.101420 0.993720 0.047271 
-0.092298 0.063759 -0.006316 -0.059198 0.996104 -0.065369 
-0.088529 0.063929 -0.008994 -0.069833 0.996062 0.054630 
-0.089902 0.064184 -0.011816 -0.035075 0.999192 0.019619 
-0.090924 0.063870 -0.010831 -0.097728 0.993877 0.051554 
-0.078467 0.064729 -0.025585 0.041950 0.997846 0.050440 
-0.080467 0.064900 -0.025486 0.069701 0.996979 0.034282 
-0.099478 0.060063 -0.042734 -0.959685 0.281008 -0.006322 
-0.094709 0.063699 -0.014778 -0.116312 0.992154 0.045843 
-0.093722 0.063913 -0.014042 -0.087877 0.993329 0.074669 
-0.098434 0.062377 -0.017070 -0.645205 0.763895 -0.013259 
-0.097353 0.063427 -0.019714 -0.483056 0.870454 0.094689 
-0.076540 0.065007 -0.030718 -0.030382 0.999038 0.031618 
-0.082687 0.064617 -0.022643 -0.005383 0.998990 0.044606 
-0.099151 0.061973 -0.013993 -0.750069 0.660720 0.029070 
-0.095097 0.064132 -0.019470 -0.138557 0.990323 0.007842 
-0.097958 0.062821 -0.015130 -0.494976 0.868894 -0.004696 
-0.078621 0.003612 -0.020622 0.046987 -0.997464 -0.053452 
-0.078018 0.003635 -0.024036 0.066212 -0.997805 0.001365 
-0.075328 0.004113 -0.021582 0.071026 -0.996807 -0.036485 
-0.095619 0.002963 -0.000260 0.041794 -0.998482 -0.035863 
-0.093942 0.003206 0.001409 0.001470 -0.999697 -0.024584 
-0.096851 0.003009 0.002593 -0.174229 -0.983758 -0.043170 
-0.064719 0.004185 0.000253 0.043304 -0.998840 0.021042 
-0.067167 0.003932 0.000822 0.054443 -0.990793 0.123953 
-0.068495 0.003828 -0.000975 0.051646 -0.997270 -0.052768 
-0.087159 0.002995 -0.002701 0.071022 -0.997472 0.002535 
-0.084922 0.003350 -0.004614 0.040380 -0.998895 -0.024038 
-0.085750 0.003341 -0.002241 0.040279 -0.999108 -0.012702 
-0.096596 0.003215 -0.001937 -0.186084 -0.980586 -0.061841 
-0.097890 0.003857 -0.004416 -0.477135 -0.878530 -0.022952 
-0.095961 0.003204 -0.006361 -0.103478 -0.994326 -0.024649 
-0.079475 0.003467 -0.008884 -0.007191 -0.999872 -0.014304 
-0.077358 0.003516 -0.007971 0.164455 -0.986385 0.000429 
-0.078141 0.003427 -0.004851 0.066205 -0.997762 -0.009356 
-0.043632 0.004733 0.005637 0.009793 -0.999802 -0.017322 
-0.046182 0.004594 0.008681 0.045702 -0.998912 -0.009240 
-0.046075 0.004542 0.006340 0.073467 -0.996673 -0.035295 
-0.094061 0.003306 -0.002431 -0.015129 -0.999689 -0.019834 
-0.074983 0.004027 -0.012286 0.082652 -0.996260 -0.025178 
-0.078677 0.003490 -0.013019 0.018479 -0.999787 -0.009214 
-0.077075 0.003582 -0.015747 0.180185 -0.983631 -0.002099 
-0.084853 0.003522 -0.021096 0.006729 -0.999893 -0.013014 
-0.086892 0.003527 -0.019797 -0.005134 -0.999710 -0.023531 
-0.087888 0.003652 -0.021484 0.029421 -0.999553 -0.005306 
-0.063615 0.004089 0.005337 0.049518 -0.996823 -0.062380 
-0.063815 0.004426 0.002744 0.017445 -0.999798 -0.009932 
-0.061210 0.004458 0.003800 0.019606 -0.999540 -0.023151 
-0.087546 0.003525 -0.024012 0.022234 -0.999517 -0.021710 
-0.066030 0.004328 0.001939 0.057948 -0.997744 0.033894 
-0.089689 0.002874 0.006104 0.012954 -0.998792 -0.047390 
-0.089292 0.003081 0.004902 0.008601 -0.999853 0.014849 
-0.089048 0.003089 0.006209 -0.003532 -0.999509 -0.031150 
-0.091416 0.003390 -0.015591 -0.069408 -0.997587 -0.001677 
-0.092541 0.003550 -0.017597 -0.052421 -0.998620 0.003135 
-0.090955 0.003439 -0.017926 -0.024218 -0.998299 -0.053041 
-0.051978 0.004179 0.007148 0.097415 -0.994613 -0.035423 
-0.054214 0.004538 0.004821 0.002493 -0.999941 -0.010576 
-0.052190 0.004379 0.005224 0.018838 -0.999659 -0.018090 
-0.075012 0.004326 -0.035192 -0.006527 -0.999979 -0.000294 
-0.073864 0.004193 -0.032041 0.014855 -0.999734 -0.017672 
-0.075952 0.004299 -0.033216 0.158994 -0.985756 -0.054827 
-0.084601 0.003723 -0.023239 0.015271 -0.997948 -0.062183 
-0.078138 0.003525 -0.027826 0.069210 -0.997539 0.011183 
-0.076734 0.003846 -0.031569 0.131937 -0.990315 -0.043222 
-0.073554 0.004281 -0.028617 0.051676 -0.998634 -0.007725 
-0.098114 0.004462 -0.016940 -0.500235 -0.864721 -0.044974 
-0.099191 0.004841 -0.013361 -0.745288 -0.665968 -0.032142 
-0.099805 0.006200 -0.017964 -0.876571 -0.481224 0.006850 
-0.099760 0.005127 -0.001286 -0.808346 -0.586192 -0.054358 
-0.099073 0.003948 0.002839 -0.563839 -0.819725 -0.100686 
-0.084998 0.003331 0.002326 0.024688 -0.999661 -0.008299 
-0.083663 0.003115 -0.001055 0.025621 -0.999392 -0.023634 
-0.082339 0.003169 0.001758 0.056023 -0.998241 -0.019415 
-0.080724 0.003482 -0.000213 0.015614 -0.999149 -0.038175 
-0.080421 0.003435 0.003258 0.020103 -0.999772 -0.007270 
-0.083839 0.003471 -0.016550 -0.015796 -0.999790 -0.013048 
-0.084719 0.003520 -0.014147 0.008061 -0.999067 -0.042419 
-0.085120 0.003646 -0.016490 0.027183 -0.999630 0.001104 
-0.093523 0.003427 -0.038449 -0.038788 -0.999241 -0.003668 
-0.066180 0.004037 0.004108 0.088638 -0.986821 -0.135378 
-0.059526 0.004296 0.011880 0.031931 -0.997674 -0.060230 
-0.056562 0.004365 0.010187 -0.022117 -0.999643 -0.015022 
-0.085582 0.003384 -0.008466 0.021066 -0.999613 -0.018188 
-0.086918 0.003196 -0.006443 0.043001 -0.999055 0.006303 
-0.095503 0.004042 -0.043066 -0.249782 -0.963068 -0.100547 
-0.095337 0.003893 -0.041238 -0.173244 -0.983251 -0.056605 
-0.048509 0.004603 0.008879 -0.035126 -0.999094 -0.024045 
-0.049966 0.004530 0.011567 0.052247 -0.998517 -0.015289 
-0.050463 0.004726 0.008647 0.138011 -0.989368 -0.045874 
-0.064902 0.004158 0.009055 0.049609 -0.998658 0.014878 
-0.063005 0.004030 0.013013 0.046921 -0.997248 -0.057400 
-0.090965 0.002928 0.008435 0.006363 -0.998827 -0.047993 
-0.092800 0.002964 0.006206 -0.041403 -0.999106 -0.008491 
-0.091237 0.002900 0.006716 0.039806 -0.998967 -0.021922 
-0.098023 0.003763 -0.000937 -0.477087 -0.875239 -0.079650 
-0.098535 0.003713 0.000572 -0.498356 -0.861575 -0.096587 
-0.054060 0.004231 0.008756 -0.049535 -0.998478 -0.024269 
-0.056127 0.004380 0.007634 0.042601 -0.998021 0.046243 
-0.088217 0.002989 0.008321 0.029554 -0.998508 -0.045918 
-0.089699 0.002967 0.007201 0.013798 -0.999663 -0.021976 
-0.088399 0.002930 0.007128 0.001908 -0.999959 0.008852 
-0.087991 0.003171 -0.003887 0.015865 -0.993217 -0.115188 
-0.089486 0.003245 -0.004393 0.028693 -0.993951 -0.106007 
-0.088035 0.003209 -0.005090 -0.004484 -0.999910 -0.012685 
-0.097301 0.003790 -0.010560 -0.393769 -0.918802 -0.027351 
-0.095381 0.003322 -0.010496 -0.005736 -0.999434 -0.033139 
-0.099941 0.010415 -0.042922 -0.991730 -0.090153 -0.091347 
-0.058456 0.004553 -0.001526 0.025787 -0.998993 -0.036719 
-0.056086 0.004329 -0.000175 0.040665 -0.998677 -0.031460 
-0.058740 0.004245 0.002216 -0.007342 -0.999890 0.012864 
-0.076302 0.003992 -0.018586 0.122776 -0.992256 -0.018828 
-0.077855 0.003458 -0.018009 0.160536 -0.985384 -0.056979 
-0.087453 0.002913 0.002956 0.036823 -0.999056 -0.023040 
-0.085810 0.003017 0.004801 0.073941 -0.997262 -0.000753 
-0.071043 0.003995 -0.004990 0.058831 -0.997521 -0.038603 
-0.072131 0.004000 -0.002881 0.041008 -0.997853 -0.051068 
-0.074556 0.003750 -0.004477 0.065884 -0.997797 -0.007740 
-0.075807 0.003912 -0.002170 0.066943 -0.997738 0.006184 
-0.075105 0.003625 -0.000587 -0.053320 -0.998384 0.019659 
-0.076424 0.003879 -0.000122 0.143734 -0.989359 -0.022548 
-0.077265 0.003392 0.002764 0.105789 -0.993603 -0.039512 
-0.074869 0.003931 0.001338 0.050124 -0.998528 -0.020702 
-0.074572 0.004086 -0.006795 0.071544 -0.997103 -0.025827 
-0.074519 0.004237 -0.016053 0.063394 -0.997971 0.005890 
-0.078275 0.003272 -0.001064 0.103830 -0.993543 -0.045736 
-0.083266 0.003293 -0.011053 0.029219 -0.999336 -0.021786 
-0.085880 0.003368 -0.011292 0.018896 -0.999820 -0.001516 
-0.082894 0.003659 -0.017876 0.058020 -0.998125 -0.019479 
-0.081213 0.003596 -0.019542 0.011056 -0.999908 -0.007866 
-0.080840 0.003745 -0.015684 -0.018888 -0.999822 0.000287 
-0.072086 0.004049 -0.034849 0.010417 -0.999737 0.020416 
-0.074117 0.004055 -0.036784 -0.120440 -0.992721 -0.000302 
-0.082545 0.003441 -0.014480 0.079065 -0.996409 -0.030282 
-0.096733 0.003507 -0.013822 -0.243812 -0.968385 -0.052788 
-0.083187 0.003361 -0.007884 0.018498 -0.999701 0.015978 
-0.069543 0.003874 0.009509 0.047050 -0.998092 0.039979 
-0.073020 0.003676 0.008236 0.035351 -0.998713 0.036360 
-0.069242 0.003405 0.005642 0.042345 -0.998591 -0.031975 
-0.083618 0.003786 -0.025034 0.034552 -0.999212 -0.019535 
-0.082306 0.003518 -0.022613 0.053790 -0.997241 -0.051159 
-0.091324 0.003576 -0.027039 -0.019805 -0.999608 -0.019796 
