0.004568 0.139736 0.016645 0.413072 -0.894386 0.171599 
0.005324 0.140194 0.016617 0.609204 -0.760376 0.225164 
0.005318 0.140249 0.017318 0.673119 -0.737274 0.057773 
-0.030045 0.149280 0.019073 -0.239260 -0.507199 0.827952 
-0.029452 0.147772 0.018423 -0.298733 -0.537981 0.788248 
-0.027758 0.148420 0.019309 -0.180877 -0.491515 0.851878 
0.012310 0.142019 0.017657 0.079458 -0.519728 0.850629 
0.011221 0.143299 0.018630 0.040416 -0.468541 0.882517 
0.010235 0.141233 0.017222 -0.025050 -0.508984 0.860411 
0.012619 0.147532 0.021393 0.016637 -0.804143 0.594202 
0.012132 0.146805 0.019958 0.051894 -0.796633 0.602231 
-0.015227 0.134950 0.012626 0.050227 -0.781643 0.621700 
-0.013143 0.136383 0.013826 0.105483 -0.662457 0.741636 
-0.007453 0.137485 0.015066 -0.078236 -0.551299 0.830632 
-0.006376 0.138149 0.015302 0.101336 -0.391378 0.914634 
-0.030147 0.158281 0.022472 -0.162264 -0.178838 0.970406 
-0.031324 0.143975 0.013573 -0.339180 -0.742877 0.577140 
0.000444 0.139960 0.020746 0.029598 -0.819750 0.571956 
-0.001586 0.139907 0.020855 0.040755 -0.807321 0.588704 
-0.000157 0.139519 0.019501 0.011493 -0.975195 0.221049 
-0.005439 0.140354 0.017121 -0.694722 -0.695984 0.181573 
-0.006268 0.140994 0.016423 -0.422555 -0.482377 0.767306 
-0.005850 0.139718 0.015632 -0.056892 -0.563316 0.824281 
-0.015733 0.158854 0.024446 -0.136827 -0.212565 0.967520 
-0.018960 0.160625 0.024022 -0.187878 -0.063293 0.980151 
-0.009592 0.139386 0.015509 -0.060440 -0.431902 0.899893 
-0.011149 0.139802 0.015813 0.082642 -0.501106 0.861431 
-0.010061 0.137911 0.014886 -0.043027 -0.546796 0.836159 
-0.021444 0.148105 0.019897 -0.054334 -0.490729 0.869617 
-0.017585 0.133096 0.008918 0.005545 -0.850371 0.526155 
-0.017281 0.133378 0.009964 0.080964 -0.944721 0.317723 
-0.027766 0.161095 0.023244 -0.079920 -0.073399 0.994095 
-0.001987 0.134798 0.013264 -0.180401 -0.544941 0.818837 
-0.000897 0.136743 0.014659 -0.087346 -0.437945 0.894749 
-0.000170 0.146580 0.019620 0.032770 -0.372502 0.927453 
-0.002020 0.145689 0.019528 0.035808 -0.173638 0.984158 
-0.000171 0.145390 0.019276 0.079104 -0.007562 0.996838 
-0.025605 0.150514 0.020811 -0.117881 -0.415091 0.902111 
-0.025213 0.153188 0.021740 -0.102018 -0.280033 0.954554 
0.013866 0.154460 0.024212 0.057858 -0.308118 0.949587 
0.013084 0.155021 0.024395 0.020707 -0.117884 0.992812 
0.011580 0.154962 0.024288 -0.009494 -0.182903 0.983085 
-0.016516 0.154853 0.023101 -0.074002 -0.338279 0.938132 
-0.022341 0.133153 0.005351 -0.449056 -0.839496 0.305933 
-0.016146 0.133373 0.009155 0.115644 -0.871264 0.476996 
-0.010439 0.133154 0.008740 -0.106733 -0.663023 0.740951 
-0.023236 0.142586 0.015860 -0.163536 -0.596807 0.785543 
-0.020231 0.140186 0.014996 -0.206662 -0.429536 0.879084 
-0.013477 0.133518 0.009248 -0.056360 -0.928639 0.366680 
-0.012521 0.133598 0.009780 -0.001999 -0.952811 0.303557 
-0.014236 0.133710 0.010099 -0.005684 -0.960326 0.278823 
-0.017343 0.133866 0.011106 -0.015601 -0.874762 0.484301 
-0.015860 0.133760 0.010295 0.095015 -0.944329 0.314983 
-0.015294 0.133621 0.009693 0.056921 -0.971089 0.231834 
-0.000295 0.135023 0.013818 -0.166520 -0.468050 0.867871 
-0.009066 0.145007 0.019055 -0.027129 -0.459442 0.887793 
-0.011525 0.133482 0.009135 -0.019799 -0.909398 0.415456 
-0.012602 0.156849 0.024185 -0.080920 -0.308268 0.947852 
-0.011781 0.144794 0.018941 -0.033351 -0.425401 0.904390 
-0.009544 0.143262 0.018046 -0.011501 -0.505796 0.862577 
-0.008167 0.136053 0.013539 -0.121386 -0.726005 0.676892 
-0.008661 0.138062 0.015119 -0.135688 -0.504184 0.852870 
-0.007426 0.146912 0.020063 -0.090131 -0.440955 0.892992 
-0.008189 0.142440 0.017690 0.042973 -0.527711 0.848336 
-0.012902 0.132248 0.008470 -0.103434 -0.437196 0.893398 
-0.011621 0.132957 0.008543 0.012764 -0.401032 0.915975 
-0.012610 0.133269 0.008907 0.009623 -0.721880 0.691951 
-0.005094 0.143715 0.019071 -0.775241 0.113415 0.621400 
-0.004648 0.144399 0.019204 -0.431648 0.176545 0.884597 
-0.006996 0.142457 0.017408 0.049429 -0.612167 0.789182 
-0.007787 0.139643 0.015922 -0.011922 -0.401988 0.915567 
-0.009769 0.140943 0.016369 0.005769 -0.543737 0.839236 
-0.007855 0.141436 0.016886 0.073572 -0.545976 0.834564 
-0.009178 0.141996 0.017289 -0.060683 -0.593194 0.802769 
-0.024208 0.141046 0.014292 -0.288905 -0.608681 0.738946 
-0.005698 0.140992 0.018023 -0.927793 -0.337578 0.158874 
-0.002710 0.137727 0.014989 -0.028701 -0.381704 0.923839 
-0.004789 0.131858 0.010091 -0.512186 -0.624829 0.589283 
0.022215 0.137300 0.014680 0.107940 0.015326 0.994039 
0.020809 0.137095 0.014816 0.010972 0.134396 0.990867 
0.022201 0.136470 0.015023 0.121397 0.249911 0.960629 
-0.030917 0.140456 0.007409 -0.600129 -0.769712 0.217691 
0.015645 0.139391 0.016022 0.040456 -0.538835 0.841439 
0.012630 0.140267 0.016533 0.046387 -0.490066 0.870450 
0.013036 0.138580 0.015557 0.066014 -0.595575 0.800583 
0.002726 0.151966 0.023759 0.013575 -0.031996 0.999396 
0.002922 0.150392 0.023691 -0.045191 -0.376382 0.925362 
0.003917 0.151211 0.023865 -0.006630 -0.027337 0.999604 
-0.015534 0.151490 0.021695 -0.011206 -0.425894 0.904704 
-0.015755 0.147487 0.019808 -0.051252 -0.430061 0.901344 
-0.027170 0.139621 0.011231 -0.416593 -0.724959 0.548530 
0.001477 0.147019 0.019707 0.020334 -0.647440 0.761845 
-0.012060 0.138037 0.014951 0.071437 -0.547700 0.833619 
-0.014550 0.138142 0.015335 -0.006083 -0.483883 0.875112 
-0.022573 0.140269 0.014356 -0.300641 -0.531976 0.791591 
-0.009362 0.135012 0.011979 -0.027239 -0.772634 0.634268 
-0.009556 0.134096 0.010823 -0.010962 -0.864348 0.502775 
-0.006569 0.141987 0.016873 -0.195195 -0.527919 0.826559 
-0.028095 0.146063 0.017638 -0.229881 -0.576329 0.784219 
-0.006098 0.156505 0.023319 -0.306035 -0.383212 0.871488 
-0.005869 0.156088 0.023530 -0.814777 -0.104291 0.570317 
-0.005807 0.156897 0.023774 -0.724547 -0.174180 0.666853 
-0.006146 0.132814 0.009787 -0.462549 -0.762059 0.453117 
-0.006198 0.155931 0.023213 -0.214460 -0.153781 0.964551 
0.004192 0.147322 0.020335 -0.093827 -0.854082 0.511606 
0.005027 0.147214 0.020246 -0.131653 -0.832295 0.538473 
-0.011079 0.146776 0.019707 -0.046379 -0.362166 0.930959 
-0.013907 0.144365 0.018550 -0.099880 -0.426713 0.898855 
-0.025478 0.145550 0.017853 -0.124802 -0.578075 0.806383 
-0.026554 0.143776 0.016268 -0.197842 -0.659541 0.725165 
-0.017672 0.141153 0.015828 -0.194787 -0.430257 0.881440 
-0.016389 0.143591 0.017708 -0.187808 -0.481415 0.856135 
0.009604 0.154537 0.024243 0.016384 -0.292514 0.956121 
0.008429 0.153578 0.023809 0.029129 -0.289758 0.956657 
0.011484 0.153371 0.023728 0.011777 -0.277399 0.960683 
-0.028805 0.144558 0.016231 -0.349266 -0.646388 0.678378 
-0.015553 0.136504 0.014291 -0.010270 -0.598255 0.801240 
-0.017357 0.138378 0.015026 -0.176193 -0.374065 0.910512 
-0.017932 0.136088 0.013822 -0.127054 -0.586093 0.800220 
0.023391 0.137071 0.014523 0.125396 0.173373 0.976841 
0.023132 0.137700 0.014638 0.081016 -0.457584 0.885468 
0.005851 0.143577 0.018768 0.702510 -0.095812 0.705195 
0.006595 0.144043 0.018631 0.103081 -0.502838 0.858212 
-0.021102 0.133161 0.006629 -0.424619 -0.814996 0.394310 
-0.004703 0.137970 0.015035 -0.013401 -0.403663 0.914810 
-0.005808 0.143699 0.018256 -0.378881 -0.433166 0.817812 
-0.019582 0.137668 0.014185 -0.271316 -0.406128 0.872610 
-0.010610 0.136411 0.013487 0.001707 -0.694656 0.719340 
-0.022697 0.137591 0.012625 -0.490104 -0.529711 0.692246 
-0.010356 0.142240 0.017383 0.060125 -0.557815 0.827785 
-0.010744 0.131820 0.008393 -0.087853 -0.217660 0.972063 
-0.009135 0.132328 0.008524 -0.006255 -0.228013 0.973638 
-0.028652 0.139684 0.010166 -0.463029 -0.763935 0.449452 
-0.029650 0.141064 0.011348 -0.497340 -0.720367 0.483451 
-0.029430 0.139503 0.008701 -0.591671 -0.752824 0.288411 
-0.022428 0.160294 0.023350 -0.132897 -0.091950 0.986855 
-0.012515 0.143440 0.018085 -0.015202 -0.452040 0.891868 
-0.011243 0.143065 0.017982 0.016638 -0.484189 0.874805 
-0.005683 0.158935 0.024068 -0.708198 -0.064625 0.703050 
-0.005365 0.158579 0.024892 -0.849779 -0.006520 0.527098 
-0.005527 0.159931 0.024331 -0.758948 -0.000614 0.651151 
0.010785 0.147720 0.021561 0.042943 -0.782831 0.620750 
0.011536 0.148700 0.022521 0.028129 -0.609532 0.792262 
-0.011689 0.141629 0.017258 0.057750 -0.534234 0.843362 
-0.024364 0.147418 0.019252 -0.097717 -0.519441 0.848901 
-0.025750 0.142027 0.014703 -0.223918 -0.684207 0.694062 
-0.008330 0.132798 0.008511 -0.036394 -0.431417 0.901418 
-0.007844 0.131867 0.008581 -0.058060 -0.107476 0.992511 
-0.014673 0.133547 0.009110 0.031442 -0.872105 0.488308 
-0.021643 0.138396 0.013728 -0.358093 -0.433706 0.826842 
-0.012032 0.130783 0.007873 -0.254399 -0.393450 0.883447 
-0.003778 0.139304 0.016344 -0.133045 -0.984430 0.114879 
-0.003365 0.139301 0.017782 -0.102378 -0.994717 0.007532 
-0.004397 0.139502 0.016683 -0.393708 -0.910650 0.125337 
-0.025585 0.137338 0.009520 -0.559980 -0.699775 0.443551 
-0.002133 0.139338 0.019328 0.082502 -0.986926 0.138454 
-0.003425 0.139459 0.020423 -0.052186 -0.880343 0.471458 
0.006185 0.142536 0.017731 0.798262 -0.208966 0.564899 
-0.004389 0.147974 0.020595 0.126944 -0.335735 0.933364 
-0.005836 0.148911 0.021142 -0.019558 -0.353557 0.935208 
-0.005439 0.147550 0.020773 -0.035731 -0.363380 0.930955 
-0.016656 0.132660 0.008425 0.050534 -0.598793 0.799308 
-0.018524 0.132896 0.008332 -0.244538 -0.743836 0.622020 
-0.015091 0.134141 0.011081 0.038995 -0.908473 0.416121 
-0.002968 0.146500 0.020089 0.113086 -0.404401 0.907563 
-0.001610 0.147070 0.019914 0.124991 -0.403542 0.906384 
-0.017513 0.132199 0.008138 -0.130974 -0.524315 0.841392 
0.005336 0.145601 0.019537 -0.074604 -0.365355 0.927874 
0.006491 0.146591 0.019883 -0.050214 -0.604059 0.795356 
0.012882 0.151650 0.023375 0.076544 -0.105327 0.991487 
0.014312 0.151338 0.023365 -0.015595 -0.141870 0.989762 
0.014789 0.151977 0.023362 0.036726 -0.040139 0.998519 
0.014525 0.152983 0.023490 0.036925 -0.280745 0.959072 
0.007352 0.140573 0.016407 -0.350741 -0.391196 0.850851 
0.006570 0.140388 0.016013 -0.063467 -0.502562 0.862209 
0.006927 0.139640 0.015925 -0.312020 -0.245580 0.917788 
0.005838 0.140770 0.016699 0.637024 -0.674283 0.373555 
0.000694 0.137656 0.015178 -0.104879 -0.406587 0.907572 
0.016459 0.146281 0.018996 0.028198 -0.659586 0.751100 
0.016595 0.146645 0.019346 -0.020729 -0.868954 0.494459 
0.011733 0.137734 0.014932 0.067050 -0.439282 0.895844 
0.010366 0.138399 0.015764 0.052078 -0.522060 0.851317 
0.010510 0.137327 0.014772 0.036790 -0.418873 0.907299 
-0.005621 0.157969 0.024208 -0.833706 -0.042968 0.550535 
-0.005429 0.157061 0.024591 -0.858088 -0.086177 0.506220 
-0.006032 0.164069 0.023823 -0.038249 0.171163 0.984500 
-0.007420 0.164433 0.024302 0.301623 0.146542 0.942098 
-0.009625 0.164078 0.024905 0.119100 0.169649 0.978281 
-0.011178 0.165484 0.024672 0.015954 0.287868 0.957537 
-0.012970 0.163291 0.025124 -0.082999 0.118701 0.989455 
-0.008122 0.162818 0.024710 0.274289 0.050104 0.960341 
-0.005363 0.164113 0.024250 -0.715521 0.160554 0.679891 
-0.005440 0.162843 0.024378 -0.619093 0.079507 0.781283 
-0.006662 0.162750 0.024119 0.214812 0.014348 0.976550 
-0.010195 0.161607 0.025216 0.083324 -0.043438 0.995575 
-0.013205 0.160971 0.025040 -0.082403 -0.099254 0.991644 
-0.007409 0.160908 0.024471 0.283674 -0.058179 0.957154 
-0.006720 0.161855 0.024175 0.360488 0.031808 0.932221 
0.022432 0.137891 0.014894 0.077552 -0.593447 0.801128 
0.005781 0.142792 0.019146 0.921602 0.234590 0.309221 
0.005221 0.143012 0.020233 0.560430 0.518764 0.645602 
0.005998 0.141879 0.020029 0.944582 0.095175 0.314177 
-0.006168 0.161740 0.023963 -0.059247 -0.000467 0.998243 
-0.012178 0.159411 0.024838 -0.047573 -0.194771 0.979694 
-0.005425 0.161265 0.024462 -0.758567 0.022990 0.651189 
-0.006105 0.160751 0.023941 -0.093357 -0.039476 0.994850 
-0.006390 0.159477 0.023894 0.094894 -0.110489 0.989337 
-0.009866 0.158786 0.024776 0.068551 -0.173142 0.982508 
-0.004937 0.161707 0.025220 -0.746866 0.082154 0.659880 
-0.007656 0.157412 0.024238 0.241678 -0.161447 0.956832 
-0.005093 0.160256 0.025317 -0.722169 0.035116 0.690825 
-0.000197 0.139079 0.016274 -0.065720 -0.940448 0.333525 
0.001494 0.139233 0.017927 0.018161 -0.986894 0.160344 
-0.001189 0.139280 0.017624 -0.020346 -0.995715 0.090214 
0.001842 0.139635 0.020225 0.025524 -0.921678 0.387116 
0.001679 0.140607 0.021280 0.044022 -0.530079 0.846805 
-0.001304 0.160632 0.025308 0.121421 -0.040578 0.991771 
-0.006574 0.156575 0.023496 0.286129 -0.297772 0.910748 
0.012911 0.157180 0.024506 0.036363 -0.130065 0.990838 
0.012490 0.155743 0.024393 -0.012219 -0.059264 0.998168 
0.013788 0.155709 0.024331 0.065791 -0.061249 0.995952 
0.014152 0.150603 0.023155 -0.024455 -0.165779 0.985860 
-0.003667 0.158267 0.025701 0.045782 -0.060483 0.997119 
-0.004649 0.158386 0.025580 -0.422886 -0.056041 0.904448 
-0.009934 0.155724 0.024094 -0.040723 -0.302844 0.952170 
-0.008217 0.154699 0.023642 0.135865 -0.306427 0.942148 
0.014930 0.149466 0.022988 -0.040243 -0.400077 0.915597 
-0.003369 0.155350 0.025132 0.191175 -0.259327 0.946679 
-0.002626 0.154701 0.024743 0.101342 -0.197397 0.975071 
-0.002502 0.156256 0.025076 0.161078 -0.178002 0.970757 
-0.009495 0.153612 0.023193 -0.070789 -0.420831 0.904373 
-0.003523 0.138568 0.015293 -0.032020 -0.452441 0.891219 
-0.002460 0.138511 0.015267 -0.065198 -0.522724 0.850005 
-0.002828 0.138938 0.015587 -0.074878 -0.780260 0.620957 
0.003371 0.139314 0.015939 0.223736 -0.898729 0.377133 
0.003455 0.139406 0.017656 0.222192 -0.971886 0.077897 
-0.000337 0.144675 0.019643 0.093561 0.677248 0.729782 
-0.000926 0.147773 0.020402 -0.066542 -0.818086 0.571234 
-0.001873 0.148082 0.020586 -0.151204 -0.714542 0.683058 
0.004971 0.142216 0.021014 0.424546 0.418260 0.803006 
0.001562 0.147685 0.021144 -0.060397 -0.856736 0.512206 
0.002694 0.147388 0.020295 0.000953 -0.884829 0.465915 
0.018505 0.146410 0.019193 -0.044726 -0.832127 0.552779 
0.005385 0.143940 0.019208 0.575349 0.268028 0.772745 
0.000079 0.138526 0.015453 -0.117812 -0.629691 0.767860 
-0.000321 0.137941 0.015156 -0.092115 -0.362967 0.927238 
0.002355 0.141697 0.021590 0.057595 0.103923 0.992916 
0.000940 0.141361 0.021599 0.022914 -0.074810 0.996935 
-0.007095 0.155138 0.023406 0.388369 -0.248640 0.887326 
-0.006493 0.155165 0.023076 0.076884 -0.229044 0.970375 
0.013359 0.143512 0.018301 0.212411 -0.349808 0.912423 
0.012157 0.144773 0.019088 0.172758 -0.283885 0.943167 
-0.006241 0.157986 0.023662 -0.048457 -0.135484 0.989594 
-0.007008 0.153407 0.022856 0.252474 -0.279782 0.926271 
0.009973 0.146652 0.019807 -0.017694 -0.714332 0.699583 
0.010138 0.146042 0.019426 -0.045081 -0.375510 0.925721 
0.010393 0.146210 0.019671 0.036059 -0.522070 0.852140 
0.018420 0.145303 0.018027 -0.041287 -0.521452 0.852281 
0.020549 0.145447 0.018239 0.012992 -0.616412 0.787317 
-0.005864 0.155163 0.023290 -0.732738 -0.127248 0.668508 
0.011895 0.150076 0.023291 0.091757 -0.327432 0.940409 
-0.001050 0.155567 0.024889 0.124939 -0.190026 0.973797 
0.006277 0.157240 0.024703 0.049137 -0.164077 0.985223 
0.006048 0.158064 0.024932 0.080837 -0.148487 0.985605 
0.005146 0.158136 0.024930 0.018463 -0.090339 0.995740 
0.010983 0.157854 0.024755 0.038561 -0.138136 0.989662 
0.011391 0.156292 0.024388 0.014907 -0.146868 0.989044 
-0.002699 0.158183 0.025410 0.234265 -0.088099 0.968173 
-0.001495 0.157672 0.025231 0.106487 -0.092616 0.989991 
0.018168 0.146938 0.020572 -0.035970 -0.895243 0.444124 
0.016720 0.146823 0.019959 -0.049037 -0.926703 0.372581 
0.004398 0.156792 0.024683 0.042275 -0.163056 0.985711 
0.003137 0.157821 0.024931 0.015879 -0.128712 0.991555 
-0.005023 0.157260 0.025193 -0.654852 -0.122861 0.745704 
-0.004254 0.156191 0.025423 -0.226511 -0.213124 0.950406 
-0.003293 0.156735 0.025459 0.223366 -0.180327 0.957909 
-0.003216 0.157603 0.025546 0.280086 -0.082444 0.956428 
-0.006595 0.154104 0.022788 0.222418 -0.204231 0.953321 
-0.006016 0.154181 0.022912 -0.581722 -0.252375 0.773244 
-0.009005 0.151997 0.022382 -0.118119 -0.486586 0.865611 
0.004803 0.150394 0.023633 0.042179 -0.404327 0.913641 
0.015806 0.138229 0.014952 0.036093 -0.483061 0.874842 
0.014592 0.138077 0.014996 0.023753 -0.448806 0.893313 
0.015795 0.137189 0.014801 0.038951 0.108899 0.993289 
-0.005435 0.153915 0.023759 -0.702654 -0.322452 0.634272 
0.004772 0.141441 0.021164 0.372926 -0.111098 0.921186 
0.005414 0.141352 0.020803 0.688377 -0.176513 0.703548 
0.010672 0.150873 0.023769 0.066476 -0.100766 0.992687 
0.013359 0.146769 0.019660 0.072475 -0.799052 0.596878 
0.012964 0.146085 0.019148 0.155362 -0.434503 0.887170 
-0.005029 0.156158 0.024876 -0.689813 -0.177829 0.701808 
0.000479 0.158565 0.025083 0.058311 -0.094212 0.993843 
0.003740 0.145355 0.019068 -0.045716 -0.052370 0.997581 
0.003002 0.146689 0.019521 -0.030777 -0.506177 0.861880 
0.009003 0.156957 0.024597 0.023807 -0.140970 0.989728 
-0.005798 0.152980 0.022543 -0.430018 -0.351535 0.831569 
-0.006275 0.151840 0.022106 0.100347 -0.336546 0.936305 
-0.007900 0.152593 0.022768 0.082094 -0.379123 0.921698 
0.005583 0.140668 0.020112 0.797033 -0.549737 0.250056 
0.005019 0.140036 0.018690 0.559418 -0.827420 0.049271 
0.005818 0.141095 0.018752 0.910608 -0.411873 0.033958 
0.005800 0.159894 0.024932 0.039145 -0.049696 0.997997 
-0.001149 0.162041 0.025447 0.091416 -0.037173 0.995119 
0.010040 0.155467 0.024421 0.013411 -0.130232 0.991393 
0.010450 0.155874 0.024378 0.066092 -0.068944 0.995429 
0.001483 0.155642 0.024542 0.040889 -0.213675 0.976049 
0.000682 0.161972 0.025243 0.055398 0.023678 0.998184 
0.002701 0.161122 0.025286 0.015929 0.003596 0.999867 
-0.007130 0.150790 0.022009 0.018265 -0.420580 0.907072 
-0.000544 0.162716 0.025316 0.129674 0.023783 0.991271 
0.005189 0.156993 0.024785 0.037082 -0.198030 0.979494 
0.005414 0.156424 0.024574 0.034155 -0.136618 0.990035 
-0.004954 0.154970 0.024685 -0.585341 -0.287553 0.758083 
-0.003879 0.153822 0.024737 -0.189755 -0.393408 0.899568 
-0.005142 0.139970 0.019033 -0.735044 -0.674999 0.063918 
-0.004733 0.139698 0.017602 -0.475244 -0.879853 -0.001412 
0.007037 0.158675 0.024856 0.039064 -0.081162 0.995935 
-0.005545 0.155700 0.024124 -0.845008 -0.130697 0.518536 
-0.001764 0.153352 0.024497 0.103695 -0.260172 0.959978 
-0.002962 0.151851 0.023967 -0.165772 -0.443564 0.880778 
0.008531 0.155475 0.024361 0.019339 -0.140428 0.989902 
0.004137 0.159795 0.025071 0.066899 -0.060773 0.995907 
0.007382 0.154707 0.024343 0.024610 -0.262143 0.964715 
0.006811 0.155962 0.024534 0.034309 -0.121520 0.991996 
-0.004943 0.150473 0.021471 -0.202219 -0.407668 0.890457 
0.000257 0.153427 0.024041 0.111545 -0.229487 0.966899 
-0.005122 0.151543 0.022202 -0.524298 -0.505827 0.685019 
-0.004567 0.150937 0.022376 -0.594025 -0.568538 0.569121 
0.001311 0.151803 0.023827 0.004602 -0.129382 0.991584 
0.001753 0.152633 0.023803 0.050740 -0.105517 0.993122 
0.013830 0.145144 0.018652 0.312876 -0.403594 0.859779 
0.014897 0.145577 0.018495 0.195207 -0.630180 0.751510 
-0.004534 0.146990 0.020443 0.035298 -0.452055 0.891291 
-0.003765 0.144477 0.019653 -0.229644 0.497667 0.836416 
-0.004252 0.145652 0.019466 -0.042379 -0.350188 0.935720 
0.014942 0.144733 0.017927 0.230261 -0.254067 0.939377 
-0.004548 0.162008 0.025522 -0.486699 0.082412 0.869674 
0.016724 0.152060 0.023230 0.032061 -0.102486 0.994218 
-0.004682 0.162827 0.025301 -0.621702 0.124428 0.773308 
-0.004914 0.164312 0.024943 -0.716121 0.135632 0.684671 
-0.001586 0.152048 0.023965 0.072542 -0.328459 0.941728 
-0.000945 0.152760 0.024128 0.162409 -0.269387 0.949239 
-0.005014 0.139944 0.016345 -0.449870 -0.862068 0.233358 
-0.004488 0.139301 0.015588 -0.189746 -0.754117 0.628732 
0.005994 0.141503 0.017602 0.847409 -0.456626 0.270908 
0.005620 0.140727 0.017808 0.841508 -0.531831 0.094979 
-0.000310 0.151822 0.023814 0.036598 -0.232164 0.971988 
0.010258 0.145008 0.019264 -0.002622 -0.294185 0.955745 
-0.001553 0.150433 0.023424 -0.092576 -0.497000 0.862798 
-0.003061 0.147621 0.020305 0.103920 -0.365732 0.924900 
-0.003115 0.145051 0.019420 -0.003662 0.225846 0.974156 
0.010736 0.152041 0.023518 0.021465 -0.017740 0.999612 
0.015311 0.151269 0.023359 -0.012831 -0.019512 0.999727 
0.000499 0.150203 0.023432 -0.069106 -0.443979 0.893368 
-0.021068 0.167722 0.023122 -0.038939 0.253929 0.966439 
-0.013740 0.165625 0.024480 -0.118104 0.288877 0.950054 
0.007271 0.151448 0.023490 0.048469 -0.133791 0.989824 
-0.002055 0.144870 0.019682 -0.048471 0.467629 0.882595 
-0.001166 0.144928 0.019516 0.121248 0.463646 0.877685 
0.017095 0.145016 0.017810 -0.015720 -0.339178 0.940591 
-0.001504 0.144386 0.020165 0.024117 0.710445 0.703340 
0.000116 0.147543 0.020367 -0.140865 -0.810352 0.568759 
-0.000695 0.148461 0.021953 -0.159656 -0.759363 0.630776 
0.015186 0.143471 0.017874 0.136798 -0.128054 0.982287 
0.014554 0.141900 0.017387 0.058434 -0.443946 0.894146 
0.018333 0.142410 0.017541 0.025466 -0.327653 0.944455 
0.011291 0.136791 0.014825 -0.199431 0.132486 0.970915 
0.010596 0.135376 0.015053 -0.197912 0.023692 0.979933 
-0.000624 0.147347 0.019905 -0.057772 -0.572842 0.817627 
-0.001721 0.139086 0.015892 -0.119712 -0.898666 0.421982 
-0.001182 0.138373 0.015273 -0.061220 -0.536704 0.841547 
0.000387 0.144208 0.020238 0.056983 0.764865 0.641666 
0.008809 0.147828 0.022021 0.008526 -0.744268 0.667827 
0.009787 0.147140 0.020841 -0.020714 -0.881365 0.471982 
0.016310 0.150339 0.023469 0.029166 -0.192443 0.980875 
0.006285 0.147589 0.021482 -0.069334 -0.817025 0.572419 
0.007149 0.148611 0.022673 -0.042294 -0.593059 0.804047 
-0.016305 0.131617 0.007913 0.126316 -0.371860 0.919654 
-0.015685 0.130959 0.007453 0.399668 -0.292186 0.868846 
-0.015277 0.131631 0.007528 0.131660 -0.507483 0.851543 
0.001057 0.143626 0.020770 0.057069 0.597876 0.799554 
0.001968 0.144227 0.020047 0.111973 0.774102 0.623080 
-0.018498 0.131654 0.007544 -0.404124 -0.583689 0.704266 
-0.016169 0.130743 0.007736 0.098548 -0.442644 0.891266 
-0.016996 0.130594 0.007416 -0.283477 -0.587447 0.757989 
-0.018205 0.130095 0.006064 -0.513687 -0.693341 0.505375 
-0.015046 0.132633 0.008232 0.001790 -0.603925 0.797039 
-0.001613 0.142279 0.021478 0.001669 0.315937 0.948779 
-0.000316 0.141554 0.021553 0.009545 0.064148 0.997895 
0.000783 0.142172 0.021409 0.023181 0.326920 0.944768 
-0.015609 0.129929 0.006998 0.110604 -0.499401 0.859282 
0.019207 0.139174 0.015688 0.004410 -0.536908 0.843629 
0.022076 0.139250 0.015793 -0.014000 -0.495731 0.868363 
0.006056 0.142884 0.018259 0.822887 -0.237744 0.516077 
0.004357 0.146636 0.019656 -0.134785 -0.491729 0.860253 
-0.019513 0.131649 0.006663 -0.587468 -0.618230 0.522181 
0.013279 0.149450 0.022977 0.018386 -0.401999 0.915455 
0.019023 0.147585 0.021594 -0.008077 -0.741868 0.670498 
-0.020107 0.131044 0.004966 -0.637366 -0.681702 0.359232 
-0.014701 0.130642 0.006975 0.036230 -0.381082 0.923831 
-0.020442 0.132377 0.006265 -0.605563 -0.622124 0.496241 
-0.000381 0.140742 0.021479 0.027201 -0.434421 0.900299 
-0.001201 0.141402 0.021584 0.035480 0.029120 0.998946 
-0.002034 0.141002 0.021630 0.002960 -0.237816 0.971306 
-0.005884 0.141664 0.017507 -0.918017 -0.226928 0.325191 
-0.005862 0.141961 0.018856 -0.968290 0.027633 0.248297 
-0.002501 0.145007 0.019496 -0.163370 0.367682 0.915489 
-0.006070 0.142293 0.017505 -0.770829 -0.386710 0.506240 
-0.005383 0.143032 0.018672 -0.883257 0.264705 0.387026 
-0.005288 0.142830 0.019983 -0.817245 0.369517 0.442231 
0.006328 0.139547 0.015641 -0.203448 -0.235580 0.950322 
0.005483 0.139896 0.015679 0.262367 -0.584882 0.767514 
-0.005950 0.142961 0.017888 -0.558249 -0.269477 0.784692 
-0.005223 0.141429 0.020858 -0.777931 -0.007773 0.628301 
-0.004179 0.139419 0.019173 -0.318743 -0.947167 0.035738 
0.000579 0.142914 0.021078 0.035921 0.399062 0.916220 
0.003174 0.143256 0.020871 0.147373 0.564152 0.812412 
-0.000835 0.143586 0.020871 0.009961 0.535034 0.844772 
-0.004468 0.143749 0.020053 -0.495462 0.588101 0.639261 
0.003265 0.140327 0.021103 0.117555 -0.663987 0.738446 
-0.002888 0.143761 0.020736 -0.126770 0.588108 0.798785 
-0.002783 0.144588 0.019834 -0.113372 0.679812 0.724570 
-0.004106 0.142646 0.021241 -0.307078 0.460776 0.832700 
0.011093 0.147198 0.020809 0.023830 -0.890158 0.455028 
-0.003232 0.141586 0.021653 -0.059264 0.097475 0.993472 
-0.004185 0.141524 0.021483 -0.370295 -0.004984 0.928901 
0.003598 0.147274 0.020085 -0.063979 -0.828525 0.556285 
0.009072 0.145978 0.019348 0.022224 -0.309537 0.950628 
0.016601 0.136128 0.015142 0.010184 0.146011 0.989231 
0.014757 0.136210 0.015248 0.054264 0.159354 0.985729 
0.015693 0.135011 0.015178 0.043853 -0.125821 0.991083 
0.012687 0.136312 0.015324 -0.056747 0.141062 0.988373 
-0.003580 0.140614 0.021440 -0.183415 -0.486647 0.854127 
0.003863 0.141550 0.021455 0.151679 0.020333 0.988221 
0.004621 0.140580 0.020959 0.301465 -0.619967 0.724403 
0.018467 0.136422 0.015170 0.003902 0.200261 0.979735 
0.017873 0.137123 0.014766 0.025572 0.218719 0.975453 
0.017223 0.136924 0.014889 -0.002789 0.228687 0.973496 
0.001301 0.138782 0.015927 0.003568 -0.814590 0.580027 
0.004943 0.135974 0.014699 0.011350 -0.339635 0.940489 
0.005946 0.138356 0.015375 -0.136613 -0.251238 0.958236 
0.003867 0.137410 0.014936 -0.055318 -0.194957 0.979251 
0.005465 0.143412 0.019459 0.738174 0.385685 0.553486 
0.008040 0.139485 0.016158 -0.126332 -0.416040 0.900528 
0.019922 0.136429 0.015093 -0.001701 0.253252 0.967399 
0.020918 0.136046 0.015238 0.018906 0.142501 0.989614 
0.004869 0.140025 0.020029 0.426599 -0.859611 0.281216 
0.006018 0.142087 0.018402 0.976831 -0.040495 0.210148 
0.003227 0.144247 0.019606 0.082697 0.676033 0.732216 
-0.029649 0.138973 0.005975 -0.636880 -0.757052 0.145797 
-0.027268 0.137143 0.006405 -0.624937 -0.729247 0.278661 
-0.027603 0.138554 0.009191 -0.484267 -0.777892 0.400462 
-0.004572 0.151901 0.023284 -0.534955 -0.470699 0.701616 
-0.004885 0.140106 0.020633 -0.600297 -0.568520 0.562519 
-0.005509 0.140791 0.019633 -0.931784 -0.305497 0.196088 
0.002417 0.138616 0.015419 0.228772 -0.622901 0.748103 
0.002385 0.139168 0.016576 0.196327 -0.953672 0.227961 
0.004351 0.139042 0.015277 0.064477 -0.542682 0.837460 
0.009068 0.146986 0.020146 -0.063455 -0.894296 0.442954 
0.008124 0.147096 0.020438 0.049682 -0.865379 0.498649 
0.008787 0.146665 0.019739 0.082872 -0.648413 0.756765 
-0.024443 0.162009 0.023310 -0.048811 -0.073294 0.996115 
-0.026972 0.163947 0.023411 -0.106653 0.032796 0.993755 
-0.022126 0.165175 0.023526 -0.062803 0.092922 0.993691 
-0.025773 0.165911 0.023256 -0.088830 0.151436 0.984468 
-0.024267 0.167513 0.023107 -0.055187 0.229570 0.971726 
0.019563 0.144401 0.017727 0.038196 -0.247927 0.968025 
0.017975 0.144196 0.017810 -0.017645 -0.152853 0.988091 
-0.004430 0.139648 0.019993 -0.428577 -0.879577 0.206558 
0.013632 0.135073 0.015265 0.013436 -0.128653 0.991599 
0.004168 0.133666 0.013747 0.079907 -0.404007 0.911259 
0.010467 0.147003 0.020367 0.082427 -0.911135 0.403782 
0.021397 0.144089 0.017606 0.078607 -0.154575 0.984849 
0.010990 0.146888 0.020027 -0.008894 -0.815906 0.578117 
0.016470 0.144219 0.017735 0.053570 -0.084582 0.994975 
-0.002758 0.139278 0.016393 -0.066552 -0.986233 0.151381 
-0.003510 0.139128 0.015678 -0.147564 -0.852885 0.500811 
0.022261 0.142712 0.017533 0.018795 -0.165618 0.986011 
-0.003282 0.139260 0.019330 -0.043803 -0.997312 0.058736 
-0.015668 0.161532 0.024780 -0.179189 -0.022961 0.983547 
-0.017500 0.163808 0.024248 -0.164130 0.125100 0.978474 
0.010831 0.146276 0.019540 -0.006232 -0.435728 0.900057 
0.012367 0.137208 0.015016 -0.021430 0.232491 0.972362 
0.013108 0.137738 0.014793 0.025004 -0.304183 0.952285 
0.002916 0.141067 0.021356 0.054251 -0.301926 0.951786 
0.003648 0.139585 0.019737 0.156843 -0.957337 0.242708 
-0.021225 0.162416 0.023677 -0.142825 -0.020503 0.989536 
0.013051 0.137188 0.014872 0.061491 0.332561 0.941075 
0.011947 0.134747 0.015198 -0.085387 -0.150791 0.984871 
0.021900 0.141065 0.016816 -0.011958 -0.464161 0.885670 
0.009071 0.134414 0.014563 -0.337521 0.013142 0.941226 
0.009621 0.135582 0.014753 -0.407049 0.176479 0.896196 
-0.013748 0.133120 0.008694 -0.077016 -0.591664 0.802498 
-0.013954 0.131498 0.007563 -0.217247 -0.535637 0.816025 
0.011709 0.145867 0.019313 0.104567 -0.355436 0.928833 
0.005271 0.146544 0.019781 -0.105162 -0.417138 0.902739 
0.014139 0.144270 0.018143 0.339829 -0.156001 0.927459 
0.003250 0.138356 0.015108 0.114602 -0.414612 0.902753 
0.007884 0.146276 0.019654 0.126814 -0.506971 0.852584 
0.006062 0.134559 0.013836 0.194395 -0.481756 0.854472 
0.007698 0.136858 0.014894 0.048863 -0.471279 0.880630 
0.019674 0.137864 0.014723 -0.044588 -0.346129 0.937127 
0.007613 0.135296 0.013805 -0.013329 -0.444024 0.895916 
0.018608 0.137608 0.014699 0.013438 -0.144435 0.989423 
0.017142 0.138003 0.014850 0.015907 -0.388947 0.921123 
0.019479 0.136964 0.014793 0.026633 0.293065 0.955721 
0.014042 0.137155 0.014926 -0.004347 0.231666 0.972786 
0.019798 0.135315 0.015134 -0.023715 -0.107425 0.993930 
0.046209 0.053968 -0.006961 0.925381 0.152314 -0.347088 
0.045955 0.054187 -0.008408 0.945887 0.057557 -0.319350 
0.045920 0.056692 -0.008580 0.921358 0.028494 -0.387668 
0.047160 0.061583 -0.003946 0.983003 0.025366 -0.181828 
0.047479 0.060636 -0.002220 0.999617 0.023694 0.014314 
0.047428 0.058132 -0.002786 0.998145 0.038417 -0.047221 
0.038705 0.047378 0.013631 0.253135 0.286401 0.924066 
0.039540 0.047963 0.013160 0.282624 0.266668 0.921418 
0.038564 0.048573 0.013284 0.291508 0.209065 0.933442 
0.046237 0.071436 -0.006154 0.939167 -0.151085 -0.308444 
0.045769 0.070937 -0.006947 0.928356 -0.156340 -0.337214 
0.045669 0.072053 -0.007847 0.915974 -0.034698 -0.399735 
0.047537 0.047687 -0.006080 0.969434 0.097025 -0.225351 
0.047969 0.046873 -0.005923 0.815274 0.545419 -0.194540 
0.047405 0.046972 -0.006887 0.820320 0.458852 -0.341364 
0.047241 0.048891 -0.007742 0.954079 -0.023810 -0.298608 
0.047076 0.047559 -0.007605 0.964061 0.024215 -0.264576 
0.045738 0.085155 -0.006808 0.918968 -0.092079 -0.383432 
0.045742 0.084606 -0.006273 0.915710 -0.198263 -0.349525 
0.045220 0.083740 -0.007453 0.927402 0.049355 -0.370797 
0.047282 0.053284 -0.005194 0.924623 0.255178 -0.282766 
0.047161 0.051831 -0.007477 0.905996 0.243088 -0.346524 
0.047339 0.055191 -0.003451 0.982630 0.059060 -0.175926 
0.047626 0.056222 -0.002395 0.999582 -0.016057 -0.024037 
0.047976 0.051555 -0.004853 0.959777 0.204722 -0.192141 
0.048027 0.052644 -0.002621 0.979969 0.198553 0.015393 
0.048358 0.050519 -0.002610 0.995187 0.097949 0.003129 
0.046698 0.055791 -0.005618 0.953561 0.013224 -0.300910 
0.046552 0.050068 -0.009424 0.912910 0.097778 -0.396276 
0.046611 0.056491 0.003391 0.970265 -0.004958 0.241994 
0.047108 0.057038 0.000576 0.990783 0.014713 0.134657 
0.046826 0.060534 0.002427 0.983008 -0.024692 0.181895 
0.039582 0.076077 -0.015068 0.507326 -0.046362 -0.860506 
0.037850 0.075722 -0.015880 0.341673 -0.045629 -0.938711 
0.038590 0.077160 -0.015581 0.448343 0.079910 -0.890283 
0.046249 0.053242 -0.007864 0.884364 0.317775 -0.341933 
0.031041 0.045107 0.015683 0.067427 0.228333 0.971245 
0.031449 0.045921 0.015346 0.107788 0.283256 0.952968 
0.030873 0.046073 0.015473 0.087681 0.358250 0.929499 
0.048059 0.050031 -0.005163 0.975523 -0.001405 -0.219891 
0.048342 0.048748 -0.002406 0.997853 -0.042715 -0.049651 
0.047871 0.048549 -0.005112 0.969030 -0.137442 -0.205159 
0.036412 0.056034 0.012959 0.274628 0.049932 0.960253 
0.034570 0.057638 0.013464 0.179081 0.013157 0.983746 
0.034373 0.055882 0.013662 0.176186 0.068797 0.981950 
0.036332 0.087869 0.013623 0.346317 -0.043779 0.937095 
0.034100 0.086800 0.014232 0.309745 -0.052091 0.949392 
0.036867 0.086042 0.013274 0.346291 0.002265 0.938125 
0.046043 0.083990 -0.005347 0.924648 -0.029909 -0.379646 
0.046429 0.085694 -0.005395 0.945717 -0.026115 -0.323939 
0.045981 0.078621 0.004894 0.932168 0.084266 0.352082 
0.046586 0.077032 0.003703 0.970452 0.069793 0.230981 
0.046659 0.078119 0.002644 0.973976 0.111205 0.197494 
0.037397 0.051749 -0.016844 0.262097 0.108616 -0.958910 
0.044856 0.077887 -0.009596 0.844828 0.129254 -0.519190 
0.044764 0.078934 -0.009311 0.847144 0.199119 -0.492644 
0.045437 0.079012 -0.007896 0.903279 0.138886 -0.405952 
0.046540 0.090473 -0.002412 0.990789 0.113725 0.073508 
0.046580 0.089044 -0.003232 0.991607 0.079021 -0.102327 
0.046391 0.091300 -0.003468 0.959414 0.240422 -0.147387 
0.038550 0.081182 -0.015500 0.413924 0.036668 -0.909573 
0.047411 0.057053 -0.001693 0.982121 0.052395 0.180810 
0.036930 0.071914 0.013497 0.290250 0.054014 0.955425 
0.038339 0.073328 0.012483 0.396345 0.108087 0.911717 
0.037010 0.073727 0.013117 0.382881 0.071975 0.920989 
0.045643 0.048870 0.008684 0.737009 0.284021 0.613310 
0.045424 0.046631 0.009530 0.749431 0.174612 0.638642 
0.046100 0.047290 0.008651 0.806913 0.133020 0.575498 
0.033354 0.048913 0.014388 0.247831 0.166226 0.954436 
0.032736 0.048497 0.014730 0.169031 0.111631 0.979269 
0.033282 0.047760 0.014760 0.153293 0.249268 0.956225 
0.046651 0.080645 0.002914 0.974916 0.041108 0.218742 
0.046600 0.079132 0.002642 0.977859 -0.018957 0.208405 
0.047020 0.078583 0.000015 0.993161 0.070150 0.093328 
0.036714 0.058017 0.012959 0.286944 0.007452 0.957918 
0.047160 0.071410 -0.000034 0.998124 -0.018832 0.058263 
0.047111 0.069177 -0.001320 0.997800 0.052351 0.040675 
0.046925 0.070642 -0.002687 0.988127 0.027311 -0.151190 
0.035629 0.054128 0.013443 0.234878 0.027208 0.971644 
0.038336 0.052572 0.012693 0.305560 0.097128 0.947206 
0.038173 0.054196 0.012641 0.334436 0.077611 0.939217 
0.036837 0.052521 0.013123 0.237407 0.065722 0.969184 
0.033150 0.054470 0.013811 0.093717 0.040501 0.994775 
0.046986 0.064722 0.002338 0.983012 0.008353 0.183352 
0.047229 0.065670 0.000324 0.996642 0.040388 0.071225 
0.046838 0.068747 0.001955 0.985033 0.032136 0.169345 
0.043635 0.056745 -0.012112 0.770383 0.088849 -0.631360 
0.044491 0.055573 -0.011138 0.826062 0.077574 -0.558214 
0.042985 0.054976 -0.013108 0.718756 0.118804 -0.685037 
0.030849 0.046974 0.014981 0.049351 0.303458 0.951566 
0.046214 0.046695 -0.010373 0.916552 0.168289 -0.362783 
0.046311 0.048119 -0.010247 0.930166 0.023871 -0.366363 
0.046732 0.047105 -0.008900 0.915510 0.211237 -0.342375 
0.047731 0.050583 0.003041 0.948136 0.254341 0.190653 
0.046683 0.051973 0.004645 0.900054 0.309874 0.306400 
0.046932 0.049973 0.006148 0.863851 0.294338 0.408810 
0.046845 0.083857 -0.002580 0.997063 0.011893 -0.075661 
0.047121 0.082142 -0.001911 0.993218 0.116266 0.000976 
0.046884 0.081851 -0.004066 0.972074 0.047374 -0.229843 
0.045850 0.045349 -0.012126 0.699589 0.536712 -0.471715 
0.038138 0.088855 0.012925 0.428940 0.058183 0.901457 
0.038230 0.087125 0.012674 0.443148 -0.037471 0.895665 
0.032412 0.050847 0.014437 0.100332 0.206811 0.973223 
0.032558 0.052720 0.013994 0.146348 0.143940 0.978705 
0.045838 0.046497 -0.011455 0.894252 0.132922 -0.427369 
0.046437 0.046085 0.008214 0.866531 0.162888 0.471797 
0.045294 0.044638 0.010480 0.715581 0.335168 0.612867 
0.046793 0.044575 0.008632 0.649065 0.574066 0.499162 
0.047164 0.059493 -0.000786 0.993059 -0.008022 0.117345 
0.047082 0.067515 -0.000579 0.994673 0.049981 0.090156 
0.033910 0.073306 0.013941 0.185930 -0.000662 0.982563 
0.047210 0.062852 0.000571 0.994356 -0.030730 0.101548 
0.046188 0.075628 -0.005819 0.960621 -0.079060 -0.266379 
0.046639 0.077672 -0.005275 0.962887 0.052630 -0.264725 
0.046951 0.076338 -0.003806 0.957151 -0.154423 -0.244979 
0.046130 0.080188 -0.006493 0.944558 -0.042297 -0.325608 
0.046107 0.081958 -0.006579 0.922346 0.128996 -0.364195 
0.047399 0.067166 -0.002361 0.999405 0.034486 -0.000888 
0.046508 0.069074 -0.006116 0.931225 0.209578 -0.298157 
0.046754 0.066709 -0.005964 0.958285 0.006062 -0.285749 
0.045984 0.067980 -0.007865 0.903251 0.106280 -0.415743 
0.035247 0.084575 0.013864 0.310023 -0.033498 0.950139 
0.043811 0.053437 -0.012403 0.798524 0.068237 -0.598083 
0.044182 0.051825 -0.011951 0.763647 0.245763 -0.597030 
0.042917 0.051563 -0.013616 0.719523 0.155942 -0.676734 
0.037350 0.078700 0.012963 0.345327 -0.051266 0.937081 
0.034827 0.076918 0.013841 0.284150 -0.032887 0.958216 
0.037918 0.075961 0.012750 0.395598 0.009599 0.918373 
0.041686 0.066157 0.010637 0.572620 0.022640 0.819508 
0.043555 0.067222 0.009036 0.718224 0.051029 0.693938 
0.041534 0.068655 0.010721 0.601588 -0.036160 0.797987 
0.048134 0.047628 -0.003260 0.974046 0.149018 -0.170379 
0.047699 0.047780 -0.004774 0.978247 -0.007872 -0.207296 
0.046190 0.082942 -0.005579 0.918778 0.204049 -0.337950 
0.046631 0.083277 -0.004183 0.948645 0.135061 -0.286061 
0.045956 0.068629 0.005241 0.926636 0.083038 0.366675 
0.046110 0.070596 0.004674 0.942124 -0.035003 0.333432 
0.045276 0.070366 0.006404 0.859104 -0.037326 0.510439 
0.045285 0.085577 -0.008022 0.911233 -0.038257 -0.410110 
0.045625 0.086595 -0.006856 0.899025 0.217276 -0.380192 
0.046020 0.060115 0.005608 0.916311 -0.023321 0.399787 
0.044743 0.060679 0.007558 0.806484 -0.044154 0.589605 
0.044938 0.057889 0.007070 0.826878 -0.006921 0.562339 
0.049388 0.044293 0.005526 0.675624 0.684129 0.274772 
0.048555 0.044453 0.006829 0.539527 0.772754 0.334309 
0.046303 0.070429 -0.004729 0.964155 0.056477 -0.259258 
0.046852 0.071712 -0.003633 0.976024 -0.123122 -0.179492 
0.033892 0.068851 0.013850 0.130519 -0.064321 0.989357 
0.032769 0.070591 0.014200 0.084939 -0.043051 0.995456 
0.046521 0.084492 -0.004164 0.961323 -0.079809 -0.263609 
0.038544 0.084015 0.012733 0.405277 -0.064546 0.911912 
0.038662 0.085825 0.012633 0.424661 0.088431 0.901023 
0.034354 0.090048 0.014137 0.360154 0.099582 0.927563 
0.036292 0.089777 0.013572 0.357753 0.092726 0.929201 
0.037823 0.080478 0.012970 0.349396 0.051900 0.935537 
0.039211 0.081547 0.012144 0.437152 0.044737 0.898275 
0.037371 0.081902 0.012879 0.355992 0.001051 0.934489 
0.036086 0.082747 0.013420 0.326966 -0.041970 0.944104 
0.033674 0.050119 0.014252 0.251845 0.156716 0.954994 
0.034382 0.051824 0.013604 0.219379 0.115406 0.968790 
0.046012 0.077201 -0.007671 0.933832 -0.011518 -0.357527 
0.045925 0.092641 -0.002072 0.973543 0.221528 0.056038 
0.040436 0.054145 0.011562 0.495582 0.077923 0.865059 
0.039452 0.052944 0.012227 0.407407 0.128810 0.904117 
0.035993 0.074533 0.013498 0.276251 0.024899 0.960763 
0.036302 0.073344 0.013430 0.257215 0.091789 0.961985 
0.047321 0.046715 0.005681 0.938086 0.150599 0.311953 
0.046827 0.047916 0.007266 0.905183 0.113843 0.409492 
0.035094 0.067499 0.013664 0.220321 -0.085372 0.971684 
0.035254 0.066155 0.013325 0.275246 -0.125313 0.953172 
0.036703 0.067366 0.013103 0.308109 -0.119591 0.943804 
0.047181 0.068355 -0.004003 0.978467 0.126313 -0.163242 
0.046512 0.043583 0.009987 0.488027 0.646822 0.586047 
0.045103 0.091750 -0.006904 0.855445 0.391873 -0.338600 
0.045629 0.091765 -0.005247 0.893226 0.335730 -0.299054 
0.045630 0.090875 -0.006325 0.929915 0.174711 -0.323625 
0.044436 0.057634 -0.010840 0.816876 0.062162 -0.573454 
0.046944 0.086121 -0.003323 0.988091 0.046285 -0.146746 
0.046400 0.087520 -0.004551 0.913627 0.180295 -0.364390 
0.044665 0.071002 -0.009573 0.893023 -0.052239 -0.446969 
0.045461 0.070153 -0.007694 0.927723 0.110491 -0.356542 
0.045621 0.051689 0.006881 0.833432 0.248791 0.493451 
0.047202 0.072560 -0.002022 0.998198 0.006082 -0.059701 
0.047044 0.074125 0.000409 0.996236 -0.005674 0.086495 
0.045989 0.070379 -0.006191 0.943893 0.074823 -0.321665 
0.032182 0.091174 0.014772 0.274774 0.138421 0.951493 
0.033028 0.089757 0.014817 0.343156 0.091605 0.934801 
0.033599 0.090704 0.014430 0.348525 0.139736 0.926825 
0.045158 0.053908 -0.010199 0.871185 0.047332 -0.488668 
0.045835 0.052839 -0.008976 0.853868 0.250675 -0.456149 
0.045118 0.052229 -0.010423 0.796460 0.279615 -0.536159 
0.047441 0.077105 -0.002062 0.999240 0.005923 -0.038517 
0.047161 0.078228 -0.003111 0.976993 0.136653 -0.163739 
0.047201 0.081170 -0.002285 0.997477 -0.058734 -0.039865 
0.032521 0.049283 0.014718 0.092195 0.126920 0.987619 
0.032110 0.047915 0.014717 -0.005521 0.189580 0.981850 
0.032413 0.080086 0.014669 0.168154 -0.006893 0.985737 
0.045985 0.066226 0.005792 0.907060 0.033733 0.419647 
0.046524 0.066641 0.004109 0.964748 0.062859 0.255559 
0.038140 0.072578 -0.015786 0.404848 0.089534 -0.909990 
0.037335 0.073846 -0.015856 0.379285 0.032905 -0.924695 
0.039105 0.073499 -0.015121 0.456498 0.119318 -0.881688 
0.046889 0.073258 -0.003773 0.975974 0.120146 -0.181768 
0.044242 0.075069 -0.010166 0.858562 -0.018633 -0.512371 
0.045011 0.076339 -0.009415 0.857188 -0.110633 -0.502980 
0.045310 0.074672 -0.008081 0.912563 -0.018994 -0.408495 
0.046069 0.087139 -0.005617 0.857654 0.303645 -0.415006 
0.045446 0.087743 -0.006076 0.852294 0.357265 -0.382043 
0.046036 0.078842 -0.006460 0.939610 0.131800 -0.315851 
0.045672 0.079440 -0.006994 0.917335 -0.073456 -0.391282 
0.039235 0.087969 0.012278 0.500767 -0.079024 0.861968 
0.040415 0.089267 0.011601 0.616802 0.102801 0.780377 
0.044935 0.088083 -0.007238 0.940879 0.102006 -0.323018 
0.045072 0.086712 -0.008268 0.870843 0.237112 -0.430593 
0.040625 0.057173 0.011393 0.504494 0.048215 0.862068 
0.038619 0.056415 0.012391 0.360448 0.036159 0.932078 
0.042388 0.058845 0.010058 0.624524 0.003133 0.780999 
0.043965 0.059041 0.008465 0.764322 -0.021852 0.644465 
0.043559 0.061706 0.009106 0.704102 -0.027191 0.709578 
0.038424 0.058856 0.012256 0.385465 0.042823 0.921728 
0.039983 0.060003 0.011490 0.447212 0.018087 0.894245 
0.041084 0.062932 0.011102 0.492322 -0.033631 0.869763 
0.036980 0.062035 0.012824 0.346458 0.011912 0.937990 
0.038878 0.064462 0.012030 0.358679 -0.004960 0.933448 
0.040163 0.065449 0.011546 0.430133 -0.016377 0.902617 
0.037024 0.065307 0.012659 0.330914 -0.038985 0.942855 
0.038829 0.065917 0.012087 0.347663 -0.050749 0.936245 
0.038163 0.066870 0.012431 0.395495 -0.145274 0.906906 
0.040067 0.077464 0.011643 0.477466 -0.037892 0.877833 
0.040089 0.074253 0.011729 0.465523 0.059739 0.883017 
0.041913 0.075792 0.010666 0.578406 0.011111 0.815673 
0.043423 0.048115 -0.014805 0.685691 0.316646 -0.655411 
0.045697 0.088214 -0.005254 0.827909 0.145297 -0.541715 
0.041854 0.078046 0.010531 0.589146 -0.006360 0.808002 
0.039697 0.046664 0.013613 0.287831 0.259400 0.921881 
0.039978 0.067209 0.011702 0.458797 -0.031996 0.887965 
0.046725 0.058770 -0.006019 0.955722 0.014531 -0.293913 
0.047202 0.057728 -0.004345 0.972202 -0.001915 -0.234136 
0.037960 0.067681 0.012802 0.392281 -0.092824 0.915150 
0.038717 0.068079 0.012312 0.457799 -0.057255 0.887210 
0.039745 0.069199 0.011863 0.477060 -0.112750 0.871609 
0.039163 0.079437 0.012443 0.426223 -0.046812 0.903406 
0.038543 0.077924 0.012384 0.411283 -0.066919 0.909048 
0.047855 0.043861 0.008949 0.458476 0.749981 0.476790 
0.046979 0.074440 -0.001983 0.992235 0.020268 -0.122717 
0.039805 0.072527 0.012162 0.425842 0.136962 0.894371 
0.041100 0.071470 0.011452 0.599314 -0.034529 0.799769 
0.037903 0.068948 0.012753 0.392023 -0.119659 0.912140 
0.044268 0.064235 -0.010813 0.818019 0.018659 -0.574888 
0.042489 0.065336 -0.012977 0.691924 0.015283 -0.721809 
0.043299 0.067780 -0.012106 0.772012 0.054699 -0.633250 
0.038840 0.071047 0.012815 0.446013 -0.019870 0.894806 
0.037516 0.070350 0.013292 0.301750 -0.137708 0.943389 
0.043408 0.050059 0.010537 0.643374 0.271829 0.715667 
0.043518 0.052598 0.009423 0.693813 0.170619 0.699652 
0.042074 0.052141 0.010693 0.567765 0.188175 0.801394 
0.036356 0.050529 0.013443 0.201340 0.184400 0.962008 
0.032888 0.049861 0.014416 0.295257 0.120245 0.947821 
0.043073 0.062211 -0.012583 0.740077 0.027803 -0.671948 
0.045464 0.047643 -0.012275 0.880488 0.072055 -0.468560 
0.044753 0.049247 -0.013038 0.762532 0.235330 -0.602631 
0.045747 0.049554 -0.011189 0.869186 0.161514 -0.467364 
0.041022 0.080036 0.011413 0.558672 -0.004613 0.829376 
0.046998 0.054186 0.001124 0.982913 0.059928 0.174044 
0.036634 0.091386 0.013266 0.397078 -0.034885 0.917122 
0.044782 0.060499 -0.010319 0.840627 0.020091 -0.541242 
0.038406 0.090949 0.012332 0.479230 0.061105 0.875560 
0.046411 0.073321 -0.005955 0.948918 0.084259 -0.304064 
0.046377 0.074667 -0.004453 0.984469 0.018551 -0.174575 
0.039876 0.086872 0.011734 0.531255 0.044371 0.846049 
0.032517 0.077881 0.014428 0.175374 -0.074410 0.981686 
0.046177 0.088809 -0.004645 0.908140 -0.031464 -0.417483 
0.047231 0.076142 -0.000738 0.996837 -0.057763 0.054590 
0.047064 0.075697 -0.002422 0.967137 -0.202487 -0.153772 
0.035961 0.080498 0.013538 0.327130 0.013249 0.944886 
0.034978 0.049169 0.014072 0.196575 0.196109 0.960677 
0.045272 0.088489 -0.005988 0.926040 -0.071853 -0.370522 
0.045337 0.088943 -0.006406 0.916890 -0.304722 -0.257795 
0.045716 0.089098 -0.005658 0.874527 -0.257612 -0.410900 
0.045744 0.072370 0.006010 0.898648 -0.023879 0.438021 
0.045029 0.074240 0.007016 0.844226 -0.047557 0.533874 
0.044290 0.071801 0.008103 0.800130 -0.043110 0.598276 
0.042254 0.054883 0.010228 0.627130 0.051383 0.777218 
0.046189 0.087571 0.001732 0.985561 0.129487 0.109099 
0.046284 0.088162 -0.000028 0.987970 0.077702 0.133705 
0.046126 0.089556 0.001136 0.981107 0.167295 0.097165 
0.041257 0.082901 0.010961 0.581734 0.017231 0.813196 
0.044553 0.050711 0.008907 0.746498 0.260392 0.612321 
0.046136 0.090166 -0.005089 0.954437 0.056686 -0.292980 
0.039731 0.085428 0.012102 0.492102 0.074164 0.867373 
0.048160 0.046537 0.003074 0.910815 0.347539 0.222783 
0.048124 0.045268 0.005147 0.694846 0.645104 0.317852 
0.048548 0.045699 0.003355 0.707265 0.648533 0.281390 
0.048435 0.046655 0.000977 0.929285 0.365179 0.055435 
0.048225 0.047845 0.001106 0.994323 0.075190 0.075289 
0.046319 0.045794 -0.011009 0.718021 0.542288 -0.436313 
0.046727 0.046102 -0.009859 0.708661 0.549422 -0.442647 
0.045386 0.087757 0.004924 0.920780 0.114370 0.372940 
0.046268 0.086480 0.003487 0.962803 0.120820 0.241689 
0.045784 0.088097 0.003533 0.966224 0.093127 0.240289 
0.048842 0.045879 0.001937 0.763992 0.637333 0.100608 
0.048212 0.047211 -0.001063 0.971514 0.236515 0.014890 
0.049258 0.045205 0.003384 0.667599 0.708739 0.228035 
0.047700 0.045919 -0.008726 0.704006 0.628511 -0.330680 
0.047220 0.046659 -0.007858 0.796767 0.549034 -0.252437 
0.050366 0.043864 0.003475 0.833688 0.532906 0.144829 
0.048703 0.046621 -0.002217 0.818403 0.570021 0.072747 
0.037951 0.051202 0.012965 0.262307 0.161566 0.951363 
0.046368 0.089916 -0.001024 0.975449 0.141174 0.169023 
0.033131 0.045389 0.015591 0.061047 0.126283 0.990114 
0.033517 0.045929 0.015255 0.182078 0.317806 0.930509 
0.032265 0.046330 0.015321 -0.002786 0.286773 0.957994 
0.048002 0.046952 -0.004434 0.856094 0.488594 -0.168463 
0.048372 0.047024 -0.003270 0.835845 0.515997 -0.187379 
0.033084 0.046831 0.015003 0.100120 0.304320 0.947294 
0.034234 0.046574 0.014962 0.207024 0.304729 0.929667 
0.033196 0.044356 0.015533 0.116763 0.187852 0.975232 
0.034490 0.044981 0.015287 0.194485 0.182965 0.963691 
0.043438 0.082901 0.009105 0.748139 0.055277 0.661235 
0.042589 0.081294 0.010097 0.663077 0.036937 0.747639 
0.043623 0.081005 0.009010 0.772092 -0.017921 0.635258 
0.049676 0.045041 0.001570 0.765753 0.642412 0.030465 
0.050160 0.044318 -0.000034 0.861915 0.505618 -0.038128 
0.048909 0.045750 -0.000247 0.802254 0.593031 0.068574 
0.040900 0.085208 0.011417 0.597200 0.035688 0.801298 
0.049928 0.045019 -0.002084 0.846136 0.514306 0.139799 
0.048894 0.046395 -0.003263 0.734448 0.671852 -0.095922 
0.045126 0.083491 0.006144 0.907923 0.038452 0.417369 
0.044624 0.081878 0.007657 0.856815 0.053638 0.512826 
0.045621 0.081170 0.005734 0.914167 0.035038 0.403821 
0.046579 0.053310 0.003153 0.966980 0.124857 0.222171 
0.046132 0.053856 0.005087 0.937257 0.085603 0.337967 
0.048193 0.046161 -0.006928 0.689651 0.669240 -0.276587 
0.048608 0.046203 -0.005087 0.669261 0.731967 -0.127724 
0.048128 0.045775 -0.007696 0.694930 0.662418 -0.279776 
0.031961 0.057065 0.013718 0.030744 0.027617 0.999146 
0.048764 0.045231 -0.007712 0.718041 0.622390 -0.311527 
0.050368 0.044056 0.001421 0.859740 0.510492 0.015661 
0.049464 0.045374 -0.005860 0.747007 0.620427 -0.238852 
0.046999 0.081264 -0.000337 0.994862 0.011218 0.100620 
