-0.049225 -0.002658 0.072389 -0.850805 0.513980 -0.109340 
-0.023855 0.006234 0.092676 0.215323 0.975601 -0.042871 
-0.027658 0.006940 0.091053 0.161989 0.986768 0.006883 
-0.025808 0.006679 0.092404 0.208790 0.977470 0.030960 
-0.049492 -0.002415 0.075275 -0.844321 0.513682 -0.152489 
-0.033059 0.007390 0.112210 0.087354 0.996046 -0.016165 
-0.030891 0.007218 0.114351 0.104409 0.994314 -0.020957 
-0.025812 0.006586 0.093274 0.197874 0.980157 0.011774 
-0.023268 0.006053 0.078900 0.231521 0.972810 0.006190 
-0.052147 -0.006460 0.077401 -0.866094 0.465241 -0.182841 
-0.024753 0.006422 0.094115 0.168417 0.985508 0.020244 
-0.023985 0.006327 0.094196 0.209335 0.976867 0.043696 
-0.021395 0.005507 0.091739 0.311555 0.947610 0.070491 
-0.020593 0.005352 0.090551 0.237410 0.971409 -0.000945 
-0.027483 0.006821 0.113801 0.115891 0.992887 -0.027275 
-0.019825 0.005169 0.091696 0.246389 0.969170 0.001567 
-0.020540 0.005333 0.093486 0.228333 0.973243 -0.025745 
-0.022149 0.005700 0.093138 0.259599 0.964991 -0.037435 
-0.020555 0.005380 0.076837 0.260035 0.965599 0.000163 
-0.019062 0.004942 0.092825 0.256026 0.962611 -0.088485 
-0.019571 0.005161 0.093459 0.221363 0.974895 -0.024046 
-0.021600 0.005737 0.093995 0.261561 0.961106 -0.088658 
-0.026016 0.006601 0.111887 0.146799 0.989160 0.003514 
-0.018308 0.004705 0.078631 0.282151 0.959336 -0.008058 
-0.051030 -0.004103 0.077877 -0.858218 0.475034 -0.194433 
-0.019943 0.005195 0.079319 0.273857 0.961670 0.013882 
-0.022901 0.005975 0.094163 0.239755 0.970380 -0.029680 
-0.023932 0.006203 0.095096 0.187696 0.980112 0.064434 
-0.021530 0.005753 0.095221 0.299652 0.954047 -0.001588 
-0.020723 0.005378 0.095161 0.295434 0.954974 -0.027279 
-0.019824 0.005206 0.095461 0.242546 0.970049 -0.013292 
-0.016163 0.004011 0.078134 0.318620 0.947770 -0.014611 
-0.049004 -0.000460 0.078482 -0.824943 0.521865 -0.217085 
-0.014542 0.003428 0.078420 0.306593 0.951400 0.028976 
-0.027322 0.006820 0.093601 0.113739 0.989569 -0.088408 
-0.027203 0.007003 0.094374 0.135935 0.987159 -0.083892 
-0.024953 0.006460 0.113829 0.168620 0.984875 -0.039865 
-0.026714 0.006846 0.095344 0.184803 0.979583 0.079156 
-0.014946 0.003690 0.081614 0.297510 0.954494 -0.020734 
-0.025359 0.006453 0.095012 0.256900 0.961960 0.092929 
-0.037315 0.007715 0.113151 0.057733 0.998158 -0.018654 
-0.038217 0.007725 0.110881 0.049480 0.998708 -0.011540 
-0.040617 0.007853 0.113918 0.033952 0.999237 -0.019314 
-0.042309 0.007915 0.114108 0.032486 0.999199 -0.023383 
-0.041591 0.007831 0.110565 0.026806 0.999546 -0.013778 
-0.024903 0.006317 0.095955 0.200212 0.979558 0.019529 
-0.027394 0.006770 0.096137 0.187108 0.977181 0.100535 
-0.047278 0.000514 0.073278 -0.817543 0.563344 -0.119444 
-0.048074 -0.000181 0.075221 -0.827903 0.535930 -0.165396 
-0.028708 0.007030 0.097645 0.266718 0.961024 0.072761 
-0.027411 0.006766 0.098500 0.186113 0.982461 0.011514 
-0.025875 0.006522 0.097762 0.176796 0.984126 0.015452 
-0.032500 0.007775 0.082948 0.137236 0.990299 0.021760 
-0.028672 0.007132 0.084359 0.179066 0.983632 0.020083 
-0.030681 0.007545 0.080101 0.166627 0.985923 0.013839 
-0.024912 0.006311 0.097702 0.158447 0.986351 -0.044793 
-0.024392 0.006301 0.098532 0.159766 0.987054 0.014124 
-0.045895 0.002326 0.072825 -0.794987 0.596750 -0.109018 
-0.022722 0.005927 0.096197 0.198775 0.979969 0.012234 
-0.023534 0.006184 0.097109 0.200543 0.979486 -0.019737 
-0.021360 0.005661 0.096735 0.242236 0.970152 0.011250 
-0.025879 0.006627 0.081357 0.204925 0.978734 0.009222 
-0.027111 0.006808 0.085198 0.171610 0.984928 -0.021608 
-0.024443 0.006286 0.082955 0.215021 0.976558 -0.009992 
-0.022479 0.005855 0.097428 0.226641 0.973978 0.000365 
-0.019688 0.005174 0.097286 0.236060 0.971725 0.005235 
-0.020727 0.005374 0.099437 0.261469 0.965179 0.007930 
-0.025319 0.006538 0.085686 0.217081 0.976123 0.007671 
-0.024060 0.006280 0.084392 0.230035 0.973182 -0.000716 
-0.047471 0.000986 0.076122 -0.805813 0.565215 -0.176627 
-0.023178 0.006042 0.098237 0.227408 0.973599 0.019784 
-0.034409 0.007549 0.115252 0.077188 0.996681 -0.025869 
-0.031094 0.007508 0.085778 0.148734 0.988527 0.026321 
-0.021727 0.005729 0.098548 0.254349 0.967056 0.010453 
-0.052856 -0.005719 0.081593 -0.851034 0.445810 -0.277479 
-0.030261 0.007324 0.087443 0.119013 0.992351 -0.032792 
-0.023208 0.006006 0.100321 0.189047 0.981298 0.036266 
-0.038832 0.007858 0.116372 0.040355 0.998793 -0.028016 
-0.032523 0.007615 0.088207 0.113192 0.993565 0.004026 
-0.050971 -0.002866 0.080336 -0.841138 0.478251 -0.252514 
-0.027472 0.007010 0.087153 0.174452 0.984614 -0.010077 
-0.052718 -0.004138 0.083476 -0.836663 0.442277 -0.323087 
-0.026148 0.006665 0.087540 0.225720 0.973964 0.021076 
-0.024176 0.006187 0.086182 0.235065 0.971783 0.019572 
-0.033717 0.007504 0.098235 0.115366 0.993199 0.015723 
-0.032821 0.007375 0.097179 0.101414 0.994420 0.029038 
-0.033505 0.007551 0.095164 0.094988 0.995232 0.022157 
-0.029586 0.007353 0.088263 0.125376 0.991903 -0.020223 
-0.028313 0.007066 0.089122 0.175662 0.983899 0.032963 
-0.040954 0.007927 0.117012 0.040678 0.998681 -0.031339 
-0.035262 0.007656 0.095684 0.090469 0.995628 0.023249 
-0.051248 -0.001991 0.082677 -0.823769 0.478323 -0.304323 
-0.049310 0.000467 0.081419 -0.808542 0.518724 -0.277823 
-0.042956 0.008081 0.118228 0.007372 0.999614 -0.026790 
-0.036231 0.007721 0.097502 0.074733 0.996815 0.027836 
-0.022708 0.005859 0.084912 0.254117 0.966989 0.018894 
-0.020206 0.005264 0.085166 0.259376 0.965712 0.011144 
-0.034359 0.007502 0.100531 0.085390 0.995928 0.028915 
-0.038990 0.007859 0.098374 0.049340 0.998342 0.029644 
-0.022716 0.005912 0.086704 0.239875 0.970661 -0.016628 
-0.039654 0.007958 0.119133 0.036062 0.998210 -0.047702 
-0.020979 0.005400 0.086930 0.264272 0.964448 0.000226 
-0.032060 0.007406 0.094557 0.068583 0.996899 0.038579 
-0.018377 0.004679 0.086305 0.259949 0.965381 0.021583 
-0.030577 0.007332 0.098301 0.012476 0.997648 0.067397 
-0.029815 0.007440 0.097508 0.045505 0.998646 0.025202 
-0.032185 0.007245 0.098902 0.067683 0.997702 0.003003 
-0.049636 0.001346 0.083730 -0.789892 0.516440 -0.330695 
-0.051750 -0.001106 0.085140 -0.803557 0.469242 -0.366207 
-0.018994 0.004927 0.088175 0.242041 0.969331 -0.042593 
-0.037853 0.007932 0.119660 0.048652 0.998017 -0.039935 
-0.036600 0.007778 0.117555 0.058724 0.997439 -0.040817 
-0.017371 0.004434 0.087841 0.270554 0.961693 -0.044130 
-0.050579 0.001500 0.086066 -0.771827 0.512792 -0.375936 
-0.029696 0.007226 0.098656 0.132286 0.987416 0.086659 
-0.028588 0.007035 0.099038 0.210037 0.977547 0.016935 
-0.021666 0.005624 0.088559 0.261476 0.965200 -0.004345 
-0.031920 0.007259 0.100034 0.083608 0.996241 0.022663 
-0.032579 0.007304 0.101272 0.088747 0.995758 0.024308 
-0.035054 0.007774 0.119767 0.072785 0.996572 -0.039322 
-0.028999 0.007087 0.100146 0.118908 0.988775 0.090475 
-0.029971 0.007061 0.100585 0.074717 0.996162 0.045600 
-0.019987 0.005138 0.088533 0.226312 0.973859 -0.019524 
-0.017686 0.004662 0.089114 0.286455 0.958085 0.003953 
-0.019515 0.005113 0.089567 0.219048 0.975513 -0.019831 
-0.017647 0.004572 0.089887 0.306746 0.949812 0.061349 
-0.052282 0.000754 0.088428 -0.782281 0.484780 -0.391185 
-0.031011 0.007155 0.102378 0.064099 0.997892 0.010166 
-0.054393 -0.000906 0.090691 -0.810498 0.460800 -0.361603 
-0.031696 0.007397 0.118134 0.099766 0.994279 -0.038158 
-0.029468 0.007122 0.118001 0.123842 0.991058 -0.049667 
-0.029355 0.007118 0.102735 0.097329 0.995251 0.001857 
-0.049221 0.004287 0.087315 -0.718147 0.590054 -0.368918 
-0.047353 0.005082 0.084921 -0.688119 0.654257 -0.313751 
-0.049062 0.003265 0.085451 -0.755118 0.555613 -0.347981 
-0.032855 0.007272 0.104021 0.088443 0.996068 0.005047 
-0.051534 0.002998 0.089848 -0.754686 0.540960 -0.371230 
-0.029023 0.006963 0.114802 0.116853 0.992621 -0.032384 
-0.047893 0.005480 0.086901 -0.643479 0.697608 -0.315083 
-0.050187 0.005042 0.090427 -0.674344 0.662832 -0.325443 
-0.054676 0.000845 0.094030 -0.824688 0.492466 -0.278149 
-0.027846 0.006970 0.116179 0.108182 0.994124 -0.003654 
-0.025320 0.006639 0.115532 0.157564 0.987347 -0.017906 
-0.053320 0.001336 0.091341 -0.794251 0.498146 -0.347873 
-0.027067 0.006818 0.117284 0.110178 0.993699 -0.020555 
-0.028831 0.007070 0.116190 0.105204 0.994172 -0.023546 
-0.045219 0.006357 0.083411 -0.556327 0.800722 -0.222139 
-0.046844 0.006373 0.087007 -0.530362 0.810533 -0.248500 
-0.044229 0.007203 0.084581 -0.420423 0.890237 -0.175282 
-0.045522 0.007298 0.087994 -0.395242 0.900366 -0.182001 
-0.025425 0.006383 0.099897 0.178879 0.983865 0.003449 
-0.053126 0.002637 0.092868 -0.788364 0.533728 -0.305967 
-0.048063 0.006142 0.088822 -0.550545 0.791512 -0.265346 
-0.028325 0.006939 0.117841 0.119717 0.992049 -0.038828 
-0.056023 -0.000865 0.095204 -0.849943 0.464936 -0.247852 
-0.027708 0.006752 0.099921 0.182634 0.983153 0.007446 
-0.027299 0.006740 0.101342 0.157543 0.987396 0.015134 
-0.026147 0.006586 0.101333 0.164731 0.986337 -0.001902 
-0.055516 0.001322 0.098107 -0.843563 0.502237 -0.190157 
-0.031428 0.007457 0.120183 0.109031 0.993474 -0.033490 
-0.051722 0.003992 0.091847 -0.744130 0.586519 -0.319790 
-0.024943 0.006316 0.100999 0.203527 0.979028 -0.009022 
-0.049519 0.006004 0.091437 -0.556944 0.792249 -0.249310 
-0.051298 0.005137 0.093218 -0.686443 0.677221 -0.264891 
-0.053887 0.002952 0.095753 -0.804463 0.543792 -0.239016 
-0.022991 0.005874 0.101808 0.192050 0.981380 -0.003222 
-0.021839 0.005738 0.100482 0.240651 0.970324 0.023628 
-0.052802 0.003780 0.094261 -0.764737 0.587607 -0.264377 
-0.047464 0.007180 0.091488 -0.412589 0.893264 -0.178467 
-0.025086 0.006370 0.102325 0.212670 0.977121 -0.002504 
-0.024169 0.006147 0.102704 0.196781 0.979510 -0.042861 
-0.029609 0.007244 0.119156 0.121816 0.992343 -0.020389 
-0.044399 0.007805 0.088549 -0.280229 0.952170 -0.121838 
-0.045807 0.007758 0.091262 -0.279944 0.952536 -0.119613 
-0.056027 0.001171 0.100563 -0.865368 0.486260 -0.121199 
-0.027550 0.007008 0.119270 0.098541 0.994512 -0.035149 
-0.053964 0.003463 0.097303 -0.797125 0.569502 -0.200648 
-0.028330 0.007010 0.120080 0.050946 0.998604 -0.013924 
-0.028160 0.006908 0.102666 0.215759 0.976446 0.000873 
-0.043843 0.005001 0.072881 -0.734825 0.669924 -0.105991 
-0.043438 0.008155 0.090078 -0.158998 0.985477 -0.059628 
-0.044998 0.008051 0.092586 -0.168357 0.984365 -0.051792 
-0.043144 0.008264 0.092285 -0.041768 0.999089 0.008699 
-0.044718 0.004339 0.074819 -0.768820 0.620448 -0.154787 
-0.027312 0.006658 0.102352 0.180899 0.983237 0.022800 
-0.047503 0.001915 0.078805 -0.795259 0.560637 -0.230759 
-0.046270 0.003076 0.077392 -0.783968 0.585800 -0.205504 
-0.029933 0.007324 0.121824 0.114938 0.992005 -0.052112 
-0.052670 0.004715 0.096159 -0.725225 0.655211 -0.211538 
-0.028235 0.006902 0.103774 0.152724 0.988142 0.015838 
-0.027947 0.007143 0.121585 0.094615 0.994808 -0.037488 
-0.026851 0.006664 0.103647 0.141537 0.989483 -0.029836 
-0.053728 0.004449 0.099578 -0.754021 0.639940 -0.148088 
-0.029696 0.007014 0.104611 0.080949 0.996347 0.027189 
-0.054990 0.002904 0.100272 -0.831392 0.538423 -0.137434 
-0.026055 0.006543 0.106799 0.156981 0.987468 0.016231 
-0.044723 0.005202 0.077848 -0.715121 0.672128 -0.191953 
-0.023548 0.006133 0.106085 0.198793 0.979974 0.011520 
-0.050858 0.005901 0.094338 -0.585893 0.785964 -0.197459 
-0.048942 0.006900 0.093747 -0.442269 0.882343 -0.160837 
-0.025481 0.006458 0.103985 0.165543 0.983789 -0.068959 
-0.025891 0.006611 0.104782 0.148242 0.988725 -0.021150 
-0.023900 0.006256 0.104462 0.199988 0.979444 -0.026337 
-0.047503 0.003339 0.081900 -0.765602 0.574732 -0.289027 
-0.022532 0.005907 0.104706 0.219185 0.975683 0.000127 
-0.053360 0.003588 0.118127 -0.776570 0.581415 0.242684 
-0.053778 0.003917 0.115801 -0.771113 0.610472 0.180855 
-0.046156 0.004212 0.079959 -0.760590 0.604341 -0.237224 
-0.050109 0.006876 0.097335 -0.445230 0.888440 -0.111552 
-0.052234 0.004850 0.118338 -0.699657 0.682216 0.212276 
-0.047420 0.007674 0.094820 -0.300383 0.949374 -0.091975 
-0.045565 0.005304 0.080981 -0.696624 0.677515 -0.235984 
-0.051215 0.005604 0.118941 -0.607607 0.766498 0.208074 
-0.052369 0.005354 0.115889 -0.648891 0.744495 0.157060 
-0.044646 0.008139 0.095649 -0.040416 0.999103 0.012636 
-0.051968 0.004493 0.120156 -0.722251 0.639366 0.263752 
-0.048686 0.007541 0.098545 -0.289821 0.955305 -0.058284 
-0.051227 0.004178 0.122612 -0.722449 0.606898 0.331273 
-0.046551 0.007941 0.095911 -0.174208 0.984074 -0.035347 
-0.045752 0.008064 0.097779 -0.052519 0.998575 0.009457 
-0.055710 0.002120 0.102518 -0.858590 0.505943 -0.082737 
-0.052188 0.005745 0.098305 -0.616132 0.775508 -0.137726 
-0.050962 0.005093 0.121220 -0.641192 0.719710 0.266252 
-0.050789 0.006236 0.117426 -0.526007 0.836313 0.154586 
-0.055438 0.002902 0.104838 -0.845573 0.532704 -0.035111 
-0.049873 0.006929 0.116147 -0.416954 0.902907 0.104443 
-0.051342 0.006241 0.115182 -0.538128 0.834868 0.115814 
-0.048238 0.007268 0.119065 -0.366862 0.921823 0.125119 
-0.053381 0.005201 0.101666 -0.688023 0.719740 -0.092730 
-0.051019 0.006741 0.100837 -0.468732 0.880825 -0.066619 
-0.049921 0.006240 0.119914 -0.511092 0.836438 0.197879 
-0.054651 0.003715 0.101840 -0.806047 0.584409 -0.093559 
-0.049868 0.007254 0.100674 -0.369145 0.928010 -0.050300 
-0.046656 0.007795 0.118343 -0.222905 0.972684 0.064802 
-0.048796 0.007500 0.114183 -0.294465 0.954073 0.055083 
-0.048657 0.007644 0.100223 -0.243019 0.969149 -0.041147 
-0.042659 0.006240 0.073903 -0.582232 0.806017 -0.106502 
-0.046887 0.007977 0.100855 -0.091831 0.995775 -0.000431 
-0.040683 0.007204 0.071222 -0.453315 0.889512 -0.057217 
-0.054174 0.004615 0.104135 -0.758994 0.649523 -0.045249 
-0.053368 0.005370 0.103416 -0.651147 0.757457 -0.047604 
-0.042966 0.008000 0.098397 0.024583 0.999220 0.030911 
-0.052346 0.006053 0.102230 -0.554023 0.830306 -0.060416 
-0.041010 0.008066 0.094789 0.039039 0.998369 0.041667 
-0.047596 0.007185 0.121215 -0.383037 0.908171 0.168844 
-0.038228 0.008139 0.073435 -0.198785 0.979370 -0.036305 
-0.045325 0.007872 0.121418 -0.208128 0.974382 0.085218 
-0.036173 0.008389 0.071994 -0.034846 0.999391 -0.001882 
-0.045234 0.008008 0.118708 -0.097538 0.995031 0.019974 
-0.036932 0.007869 0.094878 0.080838 0.996157 0.033719 
-0.040106 0.007650 0.073913 -0.368962 0.927017 -0.067135 
-0.043804 0.005455 0.075192 -0.696479 0.701186 -0.152498 
-0.054885 0.003671 0.108998 -0.813789 0.579918 0.037972 
-0.054644 0.004114 0.106994 -0.797823 0.602703 0.015089 
-0.041937 0.006926 0.075751 -0.481976 0.868389 -0.116619 
-0.049555 0.005161 0.124108 -0.627199 0.708269 0.324001 
-0.043290 0.006197 0.076493 -0.594244 0.791365 -0.143584 
-0.041417 0.007862 0.102285 0.031292 0.999294 0.020818 
-0.053741 0.005147 0.107038 -0.693002 0.720851 0.011088 
-0.049101 0.006076 0.122547 -0.520984 0.817999 0.243833 
-0.052617 0.006030 0.105937 -0.564570 0.825308 -0.011335 
-0.051104 0.006911 0.105384 -0.433486 0.901113 -0.009214 
-0.038523 0.007708 0.103918 0.051591 0.998618 0.009988 
-0.048031 0.006125 0.124446 -0.494485 0.824053 0.276445 
-0.037187 0.008349 0.075263 -0.080293 0.996583 -0.019384 
-0.035411 0.008363 0.075250 0.066312 0.997718 0.012696 
-0.040962 0.007492 0.076438 -0.388115 0.917179 -0.090275 
-0.039445 0.008093 0.077464 -0.223404 0.973031 -0.057454 
-0.048462 0.005151 0.126077 -0.592524 0.720959 0.359352 
-0.041212 0.007788 0.080055 -0.322659 0.941412 -0.098155 
-0.035776 0.007544 0.104363 0.072299 0.997377 0.003615 
-0.033687 0.007335 0.102770 0.090335 0.995749 0.018013 
-0.037375 0.008405 0.078404 -0.036428 0.999288 -0.009784 
-0.052755 0.005909 0.109023 -0.589269 0.807085 0.037093 
-0.051331 0.006767 0.108099 -0.442566 0.896599 0.015668 
-0.034484 0.007448 0.104561 0.086675 0.996224 -0.005122 
-0.034164 0.008273 0.073139 0.123208 0.992299 0.012758 
-0.046201 0.007370 0.123177 -0.357203 0.915837 0.183438 
-0.042559 0.007897 0.084938 -0.279678 0.954014 -0.107876 
-0.032829 0.007934 0.077499 0.160147 0.986886 0.020215 
-0.042145 0.008228 0.087501 -0.154741 0.986288 -0.057370 
-0.040939 0.008243 0.084933 -0.154208 0.986384 -0.057159 
-0.040961 0.008349 0.088036 -0.027204 0.999627 0.002396 
-0.045112 0.007094 0.126169 -0.383458 0.889538 0.248361 
-0.050011 0.007332 0.104326 -0.329769 0.943826 -0.021080 
-0.035271 0.008284 0.078658 0.108017 0.993720 0.029214 
-0.046334 0.006244 0.126871 -0.476171 0.819725 0.318297 
-0.039249 0.008395 0.084138 -0.028219 0.999580 -0.006604 
-0.038257 0.008279 0.086852 0.068620 0.996992 0.036025 
-0.033781 0.008006 0.080034 0.137696 0.989971 0.031573 
-0.048640 0.007691 0.103893 -0.211693 0.977305 -0.007795 
-0.040139 0.008255 0.089925 0.049291 0.997997 0.039666 
-0.036565 0.008058 0.088445 0.091567 0.995006 0.039737 
-0.047539 0.007884 0.104949 -0.097782 0.995194 0.005284 
-0.034056 0.007870 0.086596 0.114747 0.992747 0.035860 
-0.034201 0.007778 0.088764 0.103663 0.994527 0.013028 
-0.047195 0.005032 0.128276 -0.583701 0.702125 0.407816 
-0.034853 0.007859 0.090068 0.083450 0.995736 0.039311 
-0.035977 0.007840 0.091285 0.133958 0.989614 0.052140 
-0.043955 0.006275 0.079360 -0.576152 0.798310 -0.175356 
-0.042521 0.007082 0.079181 -0.457255 0.879578 -0.131382 
-0.049360 0.007549 0.106486 -0.266225 0.963884 0.007163 
-0.043301 0.007141 0.081891 -0.444123 0.881567 -0.159982 
-0.043892 0.007814 0.124830 -0.239821 0.959819 0.145716 
-0.042386 0.008094 0.124428 -0.110453 0.992263 0.056694 
-0.041703 0.007862 0.082002 -0.302393 0.947038 -0.108067 
-0.039745 0.008216 0.081093 -0.168615 0.984171 -0.054549 
-0.036478 0.007893 0.092602 0.109060 0.993809 0.021194 
-0.034944 0.007657 0.092218 0.082968 0.995957 0.034439 
-0.043229 0.007456 0.127553 -0.321355 0.914645 0.245266 
-0.033802 0.007677 0.091539 0.065472 0.996616 0.049702 
-0.047463 0.007883 0.108097 -0.100234 0.994958 0.003322 
-0.034087 0.007613 0.093765 0.079021 0.996581 0.024134 
-0.040486 0.008195 0.126295 -0.091894 0.993955 0.060070 
-0.045503 0.007930 0.102979 0.009464 0.999778 0.018824 
-0.043222 0.008118 0.121385 -0.069725 0.997443 0.015650 
-0.044412 0.007862 0.105125 0.031457 0.999474 0.007893 
-0.040901 0.008197 0.122092 0.005193 0.999729 -0.022692 
-0.031945 0.007593 0.089321 0.104615 0.994511 -0.001634 
-0.036943 0.008331 0.081560 0.082970 0.996195 0.026678 
-0.031255 0.007485 0.091439 0.116875 0.992918 0.021309 
-0.029979 0.007294 0.090094 0.147314 0.988771 0.025125 
-0.042261 0.007857 0.104743 0.018270 0.999795 0.008731 
-0.028942 0.007137 0.092044 0.152914 0.987986 0.022382 
-0.038226 0.008408 0.081403 -0.028179 0.999579 -0.006966 
-0.029824 0.007232 0.092905 0.142931 0.989599 0.016272 
-0.036854 0.007964 0.122260 0.059735 0.997184 -0.045340 
-0.039370 0.007752 0.107503 0.040373 0.999182 -0.002267 
-0.045225 0.007901 0.107760 0.014019 0.999884 -0.006008 
-0.032027 0.007516 0.092881 0.085700 0.995592 0.038116 
-0.042885 0.007818 0.107733 0.024248 0.999703 -0.002562 
-0.038298 0.008240 0.125439 0.023395 0.999307 -0.028940 
-0.045721 0.007942 0.111100 -0.012254 0.999904 -0.006410 
-0.043411 0.007888 0.111334 0.026012 0.999510 -0.017402 
-0.038405 0.008248 0.127606 -0.035399 0.998622 0.038743 
-0.033780 0.007827 0.123289 0.085414 0.995329 -0.045000 
-0.029792 0.007460 0.124112 0.109336 0.992576 -0.053280 
-0.028759 0.007237 0.122980 0.126082 0.990130 -0.061202 
-0.054898 0.003181 0.112631 -0.817984 0.562562 0.120110 
-0.054022 0.004660 0.110475 -0.737534 0.671637 0.070341 
-0.032781 0.007845 0.126073 0.100948 0.993683 -0.049027 
-0.027696 0.007062 0.122973 0.073640 0.993427 -0.087638 
-0.052311 0.006065 0.111639 -0.572967 0.816244 0.073858 
-0.035513 0.008056 0.125393 0.073572 0.995780 -0.054863 
-0.034998 0.008224 0.128821 0.049009 0.998556 -0.021982 
-0.053311 0.004966 0.113627 -0.698066 0.704927 0.125626 
-0.049625 0.007445 0.109848 -0.297724 0.954388 0.022457 
-0.051005 0.006779 0.111840 -0.433161 0.899189 0.061893 
-0.030537 0.007627 0.127170 0.123186 0.991091 -0.050632 
-0.031058 0.007805 0.128404 0.126137 0.989559 -0.069726 
-0.045532 0.004995 0.130518 -0.554099 0.695502 0.457440 
-0.044106 0.006325 0.129747 -0.436824 0.823193 0.362681 
-0.041262 0.007796 0.128527 -0.224413 0.954574 0.196028 
-0.041484 0.007119 0.130620 -0.328739 0.890366 0.314926 
-0.039312 0.008071 0.128883 -0.125937 0.983520 0.129725 
-0.043307 0.005372 0.132333 -0.481352 0.737525 0.473664 
-0.047382 0.007853 0.113333 -0.143276 0.989541 0.016744 
-0.039004 0.007679 0.131268 -0.219838 0.942464 0.251859 
-0.044560 0.004618 0.132114 -0.550685 0.658524 0.512925 
-0.041662 0.006342 0.132290 -0.399810 0.818205 0.413150 
-0.041949 0.005072 0.134128 -0.475468 0.712504 0.516011 
-0.042598 0.004057 0.134735 -0.544867 0.601407 0.584319 
-0.044769 0.008008 0.115097 -0.014256 0.999749 -0.017299 
-0.046477 0.007934 0.115912 -0.128939 0.991511 0.016755 
-0.039115 0.006286 0.134672 -0.361418 0.814094 0.454563 
-0.037121 0.008063 0.130851 -0.101607 0.984634 0.142030 
-0.036636 0.007630 0.133235 -0.178595 0.945701 0.271575 
-0.040769 0.004064 0.136299 -0.497208 0.617260 0.609733 
-0.039123 0.005168 0.136296 -0.422551 0.714639 0.557442 
-0.039690 0.006970 0.132698 -0.310972 0.880632 0.357468 
-0.037601 0.007133 0.133956 -0.260951 0.894927 0.361954 
-0.033681 0.007934 0.133602 -0.074606 0.980895 0.179664 
-0.034641 0.007733 0.134008 -0.140241 0.954768 0.262202 
-0.034895 0.007494 0.108227 0.085589 0.996230 -0.014164 
-0.036829 0.006394 0.136082 -0.289726 0.844329 0.450742 
-0.033285 0.007320 0.105568 0.103450 0.994551 0.012915 
-0.037445 0.005702 0.136810 -0.364042 0.756144 0.543801 
-0.034498 0.007422 0.106564 0.114460 0.993427 0.001020 
-0.032426 0.007504 0.135771 -0.117201 0.949356 0.291526 
-0.035535 0.007064 0.135442 -0.210089 0.902246 0.376584 
-0.035056 0.006138 0.137595 -0.268368 0.823863 0.499228 
-0.033020 0.006993 0.136876 -0.178548 0.902823 0.391191 
-0.033910 0.008175 0.131436 0.001495 0.998623 0.052430 
-0.030880 0.007981 0.131689 0.090176 0.994783 -0.047693 
-0.038997 0.004076 0.137645 -0.451329 0.626661 0.635294 
-0.036609 0.004417 0.138882 -0.395467 0.655169 0.643707 
-0.035444 0.005126 0.138757 -0.331410 0.732280 0.594923 
-0.035626 0.003008 0.140665 -0.407789 0.552613 0.726861 
-0.032566 0.006243 0.138605 -0.209716 0.850068 0.483118 
0.018985 -0.013647 0.127622 0.641376 0.766241 -0.038884 
0.018880 -0.013598 0.125897 0.636756 0.770209 -0.036339 
0.017486 -0.012465 0.126669 0.617945 0.784542 -0.051354 
0.018573 -0.014290 0.096780 0.589604 0.807654 0.007906 
0.018842 -0.014501 0.098460 0.597158 0.802104 0.005657 
0.019760 -0.015000 0.095994 0.575180 0.817823 0.018276 
0.017903 -0.013722 0.096111 0.628645 0.777691 0.001608 
0.017465 -0.013320 0.094786 0.607634 0.794204 0.004495 
0.016399 -0.012613 0.095654 0.537206 0.843445 0.003255 
-0.020527 0.005765 0.119488 0.204165 0.978175 -0.038611 
-0.020359 0.005721 0.118113 0.232907 0.969604 -0.074984 
-0.021284 0.005842 0.117531 0.232018 0.972094 -0.034662 
-0.019394 0.005412 0.117836 0.235693 0.970395 -0.052742 
-0.012861 0.002939 0.080217 0.335918 0.941641 -0.021691 
-0.019670 0.005637 0.119517 0.201812 0.978590 -0.040406 
0.017725 -0.013557 0.097478 0.605093 0.796115 0.007934 
-0.021626 0.006069 0.120422 0.209912 0.977201 -0.031859 
-0.022500 0.006191 0.118536 0.198508 0.979172 -0.042617 
-0.011102 0.002221 0.080055 0.326567 0.943163 0.061629 
-0.012429 0.002850 0.082052 0.353243 0.935443 -0.012899 
-0.026198 0.006854 0.118362 0.131311 0.990906 -0.029362 
0.017788 -0.013651 0.099024 0.586493 0.809941 -0.004574 
-0.010137 0.001920 0.080357 0.333804 0.942382 0.022157 
-0.025609 0.006699 0.119115 0.162898 0.986614 0.007576 
-0.008945 0.001490 0.080802 0.368536 0.928541 -0.044636 
-0.010368 0.002030 0.081919 0.353222 0.935369 -0.017859 
0.018353 -0.014005 0.100185 0.637323 0.770596 0.001198 
0.015575 -0.012134 0.098349 0.557440 0.830206 0.004341 
0.017682 -0.012444 0.130059 0.620493 0.782357 -0.053906 
0.016875 -0.011823 0.128615 0.611881 0.790139 -0.035821 
-0.025742 0.006814 0.120922 0.156865 0.986576 -0.045398 
0.020263 -0.015457 0.098180 0.578498 0.815673 0.004187 
0.021029 -0.016003 0.095781 0.626646 0.779194 0.013105 
-0.008652 0.001371 0.082916 0.390579 0.920498 0.011457 
-0.007765 0.001002 0.081949 0.397344 0.917668 -0.002008 
-0.023462 0.006376 0.120142 0.170536 0.984920 -0.029167 
0.020827 -0.015793 0.099282 0.611811 0.790959 0.008447 
0.021319 -0.016252 0.098378 0.643161 0.765727 -0.002625 
-0.009947 0.001916 0.083794 0.375341 0.926557 -0.024713 
0.022302 -0.017076 0.096650 0.640435 0.767779 0.018930 
0.015212 -0.010670 0.128053 0.574518 0.816638 -0.055053 
0.014773 -0.010231 0.130370 0.585461 0.808984 -0.052738 
0.021799 -0.016716 0.099882 0.648335 0.761210 0.014881 
-0.014429 0.003569 0.083167 0.297713 0.954649 0.003369 
0.019729 -0.015112 0.100303 0.565876 0.824486 -0.002646 
0.018706 -0.014395 0.101534 0.593074 0.804243 -0.038161 
0.021038 -0.016055 0.100963 0.631508 0.775363 -0.003176 
-0.012501 0.002839 0.083863 0.336691 0.941519 -0.013475 
0.021107 -0.016198 0.100384 0.700869 0.712201 -0.039399 
0.020819 -0.015065 0.131618 0.711269 0.700086 0.063063 
0.021641 -0.015832 0.128482 0.670973 0.740995 -0.026870 
0.019339 -0.013738 0.130525 0.651787 0.757461 -0.037784 
-0.014070 0.003402 0.085637 0.311114 0.950299 -0.011863 
0.012745 -0.010220 0.097663 0.576594 0.810165 0.105701 
0.013891 -0.011014 0.096918 0.568929 0.822355 0.007213 
0.011793 -0.009427 0.095832 0.569590 0.821910 -0.005610 
-0.024429 0.006638 0.122053 0.157114 0.985838 -0.058631 
0.010780 -0.008775 0.097710 0.562120 0.824645 0.063093 
0.012182 -0.009990 0.098419 0.568818 0.820072 0.062678 
0.010690 -0.008819 0.098668 0.571145 0.819064 0.054104 
-0.026581 0.007024 0.122709 0.115620 0.992327 -0.043802 
0.011608 -0.009544 0.099356 0.576586 0.816988 -0.008910 
0.017621 -0.012147 0.132352 0.634027 0.769704 -0.074605 
-0.011169 0.002475 0.085118 0.349437 0.936776 -0.018546 
0.014220 -0.011203 0.097516 0.552749 0.833313 -0.007620 
-0.007945 0.001027 0.083804 0.378111 0.925480 -0.022785 
-0.021724 0.006145 0.122157 0.205415 0.976796 -0.060619 
-0.009371 0.001696 0.085268 0.387245 0.921937 -0.008527 
0.013159 -0.010519 0.099871 0.542135 0.840227 -0.010360 
0.018462 -0.012881 0.133193 0.699901 0.714114 0.013385 
-0.012680 0.002914 0.086733 0.303494 0.951413 -0.052004 
0.019440 -0.013919 0.133690 0.732300 0.669235 0.125939 
-0.011710 0.002648 0.086769 0.338913 0.940770 -0.009478 
-0.010283 0.002063 0.087124 0.352658 0.935539 -0.019982 
-0.008296 0.001248 0.086472 0.375786 0.925580 -0.045672 
-0.023251 0.006508 0.122743 0.178114 0.982056 -0.061975 
-0.024802 0.006839 0.124025 0.148296 0.987718 -0.049209 
-0.006148 0.000298 0.082677 0.407947 0.913004 0.001951 
0.015724 -0.012222 0.101121 0.561657 0.827279 -0.012303 
-0.004131 -0.000621 0.082555 0.426933 0.903927 -0.025385 
0.013181 -0.010552 0.101319 0.555064 0.831614 -0.017973 
0.013752 -0.010822 0.103337 0.559656 0.828170 -0.030338 
0.009813 -0.008290 0.101072 0.554725 0.831881 -0.015971 
0.008900 -0.007740 0.098701 0.542143 0.839207 0.042564 
-0.020663 0.006078 0.124214 0.215194 0.974493 -0.063679 
-0.023090 0.006567 0.124564 0.177979 0.982767 -0.049933 
0.011662 -0.009520 0.102136 0.548952 0.834888 -0.040165 
0.010424 -0.008634 0.102390 0.552675 0.832864 -0.029800 
0.008518 -0.007358 0.102940 0.538581 0.842489 -0.011998 
0.007925 -0.007021 0.101527 0.544650 0.838663 0.000966 
-0.018895 0.005258 0.115607 0.248816 0.968086 -0.030017 
-0.017932 0.005060 0.117886 0.260372 0.964673 -0.040150 
0.009535 -0.008070 0.103139 0.550436 0.834744 -0.014932 
-0.005792 0.000091 0.084365 0.411556 0.911149 -0.020731 
-0.004361 -0.000459 0.084598 0.404048 0.914628 -0.014161 
0.007400 -0.006733 0.102964 0.524936 0.851061 -0.011745 
0.025275 -0.021055 0.130592 0.863065 0.404727 0.302184 
-0.016696 0.004774 0.118982 0.270357 0.961627 -0.046692 
-0.016236 0.004548 0.117085 0.273194 0.961391 -0.033043 
-0.013814 0.003826 0.117029 0.292208 0.955548 -0.039289 
-0.018077 0.005165 0.119877 0.261365 0.964088 -0.047140 
0.012431 -0.009907 0.103214 0.547666 0.835927 -0.035870 
-0.002486 -0.001348 0.085350 0.443975 0.896025 -0.005117 
-0.019008 0.005495 0.121218 0.237803 0.970205 -0.046380 
0.024238 -0.018567 0.128744 0.787603 0.606548 0.108542 
0.022817 -0.017180 0.130986 0.779858 0.606470 0.154972 
0.025203 -0.019936 0.128784 0.831626 0.522200 0.188958 
-0.000767 -0.002233 0.084541 0.464532 0.885509 0.009085 
0.023966 -0.019103 0.131394 0.831540 0.488821 0.263810 
-0.004591 -0.000416 0.087413 0.420886 0.906990 -0.014988 
-0.017148 0.005041 0.121365 0.259066 0.964254 -0.055667 
0.013927 -0.010885 0.104875 0.554455 0.831887 -0.023338 
0.015579 -0.012066 0.103394 0.566427 0.823772 -0.023683 
0.012055 -0.009662 0.105220 0.552230 0.833312 -0.025142 
-0.007377 0.000895 0.084906 0.391589 0.919931 -0.019640 
0.010946 -0.008937 0.104341 0.547203 0.836688 -0.022848 
0.023712 -0.019541 0.132726 0.839951 0.419851 0.343813 
-0.005823 0.000181 0.085667 0.413385 0.910257 -0.023360 
-0.014801 0.004243 0.119861 0.269965 0.961242 -0.055979 
-0.013274 0.003771 0.118680 0.302184 0.951964 -0.049489 
0.021185 -0.016202 0.102125 0.639632 0.768638 0.008203 
0.019567 -0.014925 0.101917 0.589291 0.807322 -0.031094 
0.019543 -0.014896 0.103236 0.609705 0.792618 0.003962 
-0.013492 0.003954 0.120512 0.302445 0.951538 -0.055693 
-0.011439 0.003093 0.119348 0.310031 0.949300 -0.052067 
-0.009264 0.001763 0.087924 0.357359 0.932697 -0.048698 
-0.008118 0.001316 0.087536 0.375966 0.925713 -0.041283 
-0.006137 0.000396 0.087081 0.431178 0.900768 -0.051977 
-0.006258 0.000526 0.088345 0.427574 0.902152 0.057463 
0.021055 -0.016070 0.103538 0.641820 0.766853 0.001629 
-0.007228 0.000778 0.089176 0.398817 0.916420 0.033453 
0.019534 -0.014914 0.104973 0.609009 0.793155 -0.003678 
-0.003302 -0.000929 0.087651 0.403108 0.914900 -0.021497 
0.021482 -0.016465 0.105225 0.638022 0.769999 -0.005403 
-0.002063 -0.001513 0.086998 0.518344 0.849512 0.098225 
0.017605 -0.013514 0.101845 0.582162 0.812783 -0.021705 
-0.015036 0.004437 0.121818 0.276884 0.959479 -0.052303 
-0.005548 0.000021 0.089420 0.395888 0.918090 -0.019600 
-0.013453 0.004081 0.123495 0.300815 0.951753 -0.060641 
-0.011637 0.003292 0.121332 0.309589 0.949520 -0.050659 
-0.002996 -0.001031 0.089140 0.435096 0.900087 -0.023118 
-0.001582 -0.001736 0.088416 0.458940 0.888056 -0.027024 
-0.004562 -0.000286 0.089704 0.379389 0.924532 -0.036115 
-0.003573 -0.000775 0.089972 0.397371 0.917618 -0.008543 
-0.012111 0.002685 0.078942 0.310052 0.949589 0.046352 
0.023017 -0.017165 0.129134 0.730546 0.681480 0.043460 
-0.011111 0.002432 0.079142 0.307239 0.948897 0.072105 
0.017914 -0.013642 0.103016 0.579274 0.814918 -0.018689 
0.022136 -0.016927 0.132868 0.797937 0.547128 0.252878 
0.022342 -0.017943 0.134019 0.817779 0.457866 0.348706 
0.020853 -0.015544 0.133721 0.765924 0.604789 0.218153 
0.016620 -0.012748 0.104569 0.577369 0.816342 -0.015196 
0.019413 -0.014763 0.107020 0.612976 0.790032 -0.010440 
-0.017443 0.005216 0.123694 0.246334 0.967213 -0.061794 
-0.015182 0.003736 0.086638 0.283667 0.958461 -0.029768 
0.016343 -0.012498 0.107475 0.582120 0.812886 -0.018807 
-0.017818 0.005511 0.125980 0.253803 0.965027 -0.065625 
-0.014439 0.003646 0.087657 0.281729 0.958953 -0.032217 
0.018434 -0.013997 0.108800 0.602266 0.798147 -0.015390 
0.021280 -0.016265 0.107695 0.637206 0.770673 -0.005643 
-0.015589 0.003956 0.088645 0.283458 0.958984 0.001271 
-0.013512 0.003279 0.089978 0.323343 0.946056 0.020675 
-0.014940 0.003775 0.089814 0.287099 0.957892 0.004100 
-0.015976 0.004865 0.124055 0.277007 0.958671 -0.064947 
-0.014771 0.004412 0.123482 0.270038 0.954954 -0.123057 
-0.013166 0.003201 0.087855 0.321433 0.945927 -0.043630 
-0.011456 0.002560 0.088904 0.365728 0.930397 0.024583 
-0.011346 0.002438 0.087910 0.441901 0.896706 -0.025321 
-0.010370 0.002193 0.089202 0.311489 0.950145 -0.014134 
0.014294 -0.011093 0.106523 0.562396 0.826644 -0.019241 
-0.012865 0.003140 0.089149 0.315877 0.947692 0.045848 
-0.011385 0.002426 0.089797 0.256706 0.965502 -0.043682 
-0.011892 0.002719 0.090951 0.325248 0.944908 -0.036911 
-0.010485 0.002311 0.091151 0.295188 0.954919 0.031532 
0.028102 -0.022415 0.099960 0.717509 0.696517 0.006680 
0.029099 -0.023522 0.098996 0.745198 0.666717 0.012969 
0.028687 -0.023124 0.101711 0.737824 0.674221 0.032278 
0.027724 -0.022136 0.102525 0.718934 0.694831 0.018515 
-0.016357 0.004087 0.090332 0.279775 0.959918 0.016864 
0.028503 -0.023065 0.103575 0.751707 0.659479 0.004857 
-0.009003 0.002212 0.116796 0.342600 0.938911 -0.032735 
-0.007370 0.001485 0.114428 0.367188 0.929542 -0.033537 
-0.010530 0.002638 0.113552 0.331887 0.942919 -0.027462 
-0.015935 0.004003 0.091094 0.272672 0.961885 -0.020671 
-0.011037 0.002948 0.117214 0.330546 0.943604 -0.018726 
-0.014056 0.003446 0.091124 0.296940 0.954892 -0.002715 
-0.018030 0.004637 0.091693 0.280869 0.959364 -0.027096 
-0.016947 0.004369 0.092597 0.310298 0.950124 -0.031315 
-0.017864 0.004753 0.093099 0.290562 0.955577 -0.049463 
-0.007581 0.001688 0.117403 0.378746 0.925226 -0.022547 
-0.004877 0.000464 0.114445 0.410942 0.910965 -0.035639 
-0.005869 0.000784 0.111851 0.399129 0.916390 -0.030409 
-0.015020 0.003741 0.092365 0.293346 0.955547 -0.029630 
-0.015808 0.004040 0.092602 0.311306 0.950287 -0.006647 
-0.005432 0.000798 0.117100 0.399932 0.916388 -0.016972 
0.031774 -0.027700 0.103539 0.936445 0.350184 -0.021048 
0.032300 -0.029472 0.105341 0.980271 0.197421 -0.009651 
0.032392 -0.030400 0.103900 0.995828 0.082348 -0.039306 
-0.010885 0.002319 0.091952 0.316924 0.948385 0.011188 
-0.012692 0.003089 0.092273 0.331544 0.942700 -0.037361 
0.015877 -0.011245 0.126552 0.581827 0.810283 -0.070132 
0.017209 -0.012390 0.124614 0.595554 0.800958 -0.061500 
0.015458 -0.011156 0.124654 0.580993 0.811002 -0.068723 
-0.013689 0.003505 0.094149 0.304217 0.951064 0.054118 
-0.015621 0.003959 0.093229 0.292192 0.955949 -0.028009 
0.014332 -0.010189 0.126441 0.579252 0.813334 -0.054368 
-0.003590 -0.000083 0.116306 0.438406 0.898316 -0.028778 
-0.012735 0.003104 0.094014 0.372325 0.927972 0.015539 
-0.011333 0.002505 0.094600 0.336390 0.941418 -0.023978 
-0.009542 0.001952 0.088973 0.361151 0.932477 0.007559 
-0.008387 0.001330 0.089615 0.430479 0.902421 -0.018012 
-0.009666 0.001883 0.089779 0.366984 0.929896 -0.024836 
-0.013019 0.003528 0.115025 0.299009 0.953804 -0.029176 
0.029911 -0.024470 0.101017 0.801138 0.598478 0.001295 
0.013042 -0.009018 0.129952 0.570114 0.819312 -0.060818 
-0.010146 0.002611 0.118322 0.317022 0.946944 -0.052865 
0.030998 -0.026147 0.103159 0.868547 0.495572 -0.005873 
-0.009461 0.001956 0.090488 0.357751 0.930263 -0.081396 
-0.009615 0.001976 0.091879 0.346958 0.937813 0.011305 
-0.007966 0.001185 0.090573 0.413392 0.909108 -0.051272 
-0.008647 0.002167 0.118743 0.357355 0.932767 -0.047360 
-0.006672 0.000703 0.091544 0.406550 0.913180 -0.028612 
-0.007644 0.001147 0.091939 0.395520 0.917615 -0.039336 
0.029489 -0.024058 0.102723 0.729452 0.683552 0.025636 
-0.010219 0.002824 0.119612 0.302427 0.949576 -0.082719 
0.015385 -0.010453 0.133175 0.568847 0.812749 -0.125904 
0.016558 -0.010886 0.134915 0.683581 0.727926 -0.053287 
0.013168 -0.008943 0.132169 0.573047 0.816868 -0.065904 
-0.005016 -0.000053 0.091074 0.412813 0.909925 -0.040269 
-0.004034 -0.000566 0.091374 0.437103 0.895175 -0.087196 
-0.002824 -0.001025 0.090476 0.447319 0.894089 -0.022604 
-0.003492 -0.000732 0.092036 0.446407 0.894494 -0.024527 
0.014088 -0.009391 0.134387 0.530991 0.827970 -0.180314 
-0.005937 0.000359 0.092022 0.405553 0.913914 -0.016961 
0.015256 -0.009569 0.136156 0.645712 0.755408 -0.111425 
0.031918 -0.028136 0.106938 0.941627 0.336307 0.015363 
-0.004910 -0.000005 0.093606 0.398648 0.916008 -0.044830 
-0.006339 0.001142 0.119014 0.374402 0.926089 -0.046712 
-0.003215 -0.000817 0.093834 0.458871 0.887198 -0.048141 
-0.005325 0.000798 0.119532 0.369279 0.928234 -0.044878 
-0.004374 0.000293 0.117860 0.419813 0.906940 -0.034885 
-0.006250 0.000699 0.096041 0.360810 0.931173 -0.052274 
-0.004657 0.000053 0.096668 0.463392 0.886136 0.005461 
-0.005118 0.000243 0.095526 0.387593 0.920358 -0.052088 
0.017519 -0.012093 0.135541 0.761020 0.624865 0.174332 
0.019455 -0.014393 0.135260 0.763150 0.591249 0.260820 
0.031141 -0.026411 0.105619 0.877587 0.479366 0.006942 
-0.004374 0.000457 0.119179 0.392935 0.917710 -0.058400 
0.031130 -0.026429 0.108615 0.881250 0.472209 0.020410 
-0.010199 0.002163 0.093239 0.319026 0.947666 -0.012300 
-0.008897 0.001705 0.093880 0.375995 0.926569 -0.009861 
-0.007727 0.001936 0.120886 0.368349 0.928858 -0.039260 
0.030033 -0.024658 0.103825 0.783879 0.620741 0.014603 
-0.008124 0.001376 0.094733 0.376945 0.926110 -0.015240 
-0.008961 0.002344 0.121238 0.359322 0.932067 -0.046244 
-0.006619 0.001447 0.121478 0.392177 0.918784 -0.045099 
-0.012128 0.002911 0.095599 0.334758 0.941712 -0.033416 
-0.009909 0.002129 0.095019 0.330377 0.943467 -0.026847 
0.029463 -0.024114 0.105184 0.746038 0.665826 0.010168 
-0.004821 0.000763 0.122297 0.416663 0.908183 -0.039939 
-0.004323 0.000396 0.120681 0.422826 0.905309 -0.040415 
0.030283 -0.025062 0.106322 0.804999 0.593232 0.007225 
-0.006507 0.000726 0.094363 0.416433 0.908479 -0.035345 
-0.002370 -0.000788 0.114196 0.456238 0.889156 -0.035327 
-0.005878 0.000395 0.094359 0.396620 0.916211 -0.057011 
0.028157 -0.022555 0.105192 0.733964 0.679186 -0.001781 
0.028293 -0.022749 0.107170 0.732669 0.680507 0.010293 
0.029319 -0.023929 0.108347 0.754690 0.655997 0.010527 
0.000375 -0.002073 0.117160 0.480632 0.875936 -0.041573 
-0.000465 -0.001727 0.115124 0.438668 0.897782 -0.039471 
-0.001236 -0.001241 0.117909 0.449044 0.892509 -0.042281 
-0.008277 0.001485 0.097214 0.362598 0.931363 -0.032957 
-0.007026 0.001027 0.097540 0.358702 0.933443 0.004076 
0.019250 -0.016275 0.138250 0.768771 0.405474 0.494552 
0.018686 -0.014486 0.137224 0.761315 0.525669 0.379568 
0.016815 -0.013623 0.139516 0.738583 0.473308 0.480078 
0.005199 -0.005454 0.088632 0.441387 0.897267 0.009489 
0.004202 -0.005052 0.086719 0.509000 0.858691 0.059748 
0.004019 -0.004980 0.088642 0.471037 0.881738 0.025727 
0.024081 -0.018616 0.098289 0.660177 0.750804 0.021434 
-0.002864 -0.000320 0.119667 0.444153 0.894993 -0.041413 
0.015702 -0.013319 0.140804 0.718504 0.433639 0.543791 
0.017166 -0.015158 0.140236 0.722630 0.368701 0.584693 
-0.001302 -0.002036 0.087052 0.471275 0.881621 -0.025392 
-0.000269 -0.002462 0.086643 0.425968 0.903367 0.049795 
0.000299 -0.002775 0.085605 0.472076 0.881520 0.008230 
0.001639 -0.002722 0.119546 0.499964 0.864882 -0.044885 
0.004194 -0.004288 0.116824 0.497256 0.866585 -0.042034 
0.001831 -0.002973 0.116214 0.495283 0.867214 -0.051333 
0.000731 -0.003074 0.087087 0.457791 0.889057 0.002362 
0.004107 -0.004088 0.119498 0.487209 0.871118 -0.061480 
0.002100 -0.003676 0.086609 0.464195 0.885624 0.013858 
0.012865 -0.008295 0.135643 0.463304 0.823439 -0.327562 
0.011462 -0.007510 0.135298 0.538126 0.833836 -0.123040 
0.001765 -0.003572 0.087556 0.462667 0.886258 0.022046 
0.014168 -0.008805 0.136031 0.526008 0.794139 -0.304399 
0.004054 -0.004830 0.085947 0.497345 0.865604 0.058119 
0.005254 -0.005425 0.087482 0.484449 0.874807 -0.004702 
0.005690 -0.005810 0.086263 0.498684 0.865874 0.039705 
0.000501 -0.002014 0.119108 0.495669 0.867744 -0.036506 
-0.000561 -0.001387 0.121123 0.460917 0.885802 -0.053953 
0.003053 -0.004304 0.087937 0.532838 0.845958 0.020951 
0.026546 -0.020949 0.100918 0.689297 0.724356 0.013342 
0.013401 -0.007774 0.137491 0.643649 0.754569 -0.127831 
0.014151 -0.008512 0.137772 0.748721 0.643340 0.159786 
0.015619 -0.009949 0.136478 0.755974 0.640288 0.136145 
0.024951 -0.019482 0.101384 0.672094 0.740371 0.011857 
0.013540 -0.008304 0.138944 0.752650 0.540650 0.375787 
0.015437 -0.010240 0.137662 0.777820 0.541545 0.318942 
0.003331 -0.004510 0.090464 0.532933 0.840191 -0.100312 
0.003077 -0.004363 0.089679 0.549779 0.834850 0.027711 
0.003857 -0.005059 0.089929 0.515562 0.856089 -0.036163 
0.004660 -0.005224 0.089396 0.357088 0.934000 0.011485 
0.022759 -0.017530 0.101514 0.651723 0.758366 0.011763 
0.002281 -0.003865 0.090797 0.510490 0.859201 -0.034248 
0.004522 -0.005113 0.090794 0.463772 0.882755 -0.075236 
0.001886 -0.003661 0.089685 0.510368 0.859950 0.003203 
0.001218 -0.003229 0.090376 0.478970 0.877356 -0.028883 
0.001686 -0.003434 0.091614 0.520219 0.853984 -0.009161 
-0.003193 -0.000051 0.121762 0.427781 0.902261 -0.054104 
0.003904 -0.004669 0.091445 0.500331 0.864741 -0.043494 
0.002280 -0.003861 0.093289 0.489682 0.871511 -0.026088 
0.003899 -0.004719 0.092858 0.490266 0.871482 -0.012593 
0.000229 -0.002755 0.088531 0.477140 0.878757 -0.011088 
0.000140 -0.002758 0.089519 0.484332 0.874781 0.013457 
0.017160 -0.012209 0.136827 0.762614 0.566093 0.312983 
0.026134 -0.020574 0.103150 0.687186 0.726424 0.009124 
-0.001080 -0.002127 0.090346 0.409093 0.912422 0.011366 
0.015603 -0.011736 0.139355 0.747974 0.506242 0.429249 
-0.000615 -0.002237 0.089753 0.451072 0.892071 0.027268 
-0.000200 -0.002454 0.091666 0.455838 0.889590 -0.029019 
0.002755 -0.004019 0.089102 0.506099 0.862474 0.001841 
0.023163 -0.017894 0.104029 0.655212 0.755441 -0.002412 
0.026057 -0.020537 0.105488 0.686902 0.726740 0.003926 
0.007465 -0.006786 0.086603 0.517359 0.853454 0.062899 
0.005829 -0.005894 0.087258 0.573063 0.819507 0.002763 
0.027359 -0.021811 0.109113 0.715474 0.698639 -0.000574 
0.006587 -0.006458 0.087414 0.523349 0.850814 0.047135 
0.001800 -0.002659 0.121670 0.488705 0.869650 -0.069828 
0.025196 -0.019715 0.108379 0.681760 0.731569 -0.003143 
0.007292 -0.006798 0.087580 0.489962 0.871744 -0.000197 
0.007991 -0.007230 0.087749 0.509869 0.860024 -0.019806 
0.007875 -0.007007 0.088967 0.496277 0.867508 -0.033751 
0.020565 -0.016177 0.135684 0.789006 0.497369 0.360685 
0.001645 -0.002361 0.123798 0.486573 0.870615 -0.072637 
0.006167 -0.005977 0.088924 0.537563 0.843161 -0.010278 
0.005424 -0.005623 0.089534 0.458235 0.888679 0.016422 
0.006740 -0.006453 0.089680 0.537518 0.843243 -0.003919 
-0.001219 -0.000844 0.124283 0.444710 0.894123 -0.052695 
-0.002610 -0.000204 0.123581 0.434009 0.898762 -0.062160 
0.023127 -0.017845 0.110041 0.662345 0.749161 -0.007556 
0.025122 -0.019634 0.111361 0.679412 0.733657 -0.012133 
0.031733 -0.027925 0.109858 0.940221 0.338255 0.039589 
0.009969 -0.008502 0.088240 0.498259 0.866771 -0.021125 
0.009762 -0.008154 0.089271 0.480566 0.876256 -0.035092 
0.010605 -0.008640 0.088775 0.518430 0.853608 -0.050838 
0.010925 -0.008938 0.090056 0.561172 0.827476 0.019219 
0.031129 -0.026576 0.111036 0.891127 0.452089 0.038841 
0.008990 -0.007791 0.090348 0.501605 0.865089 0.003638 
0.009729 -0.008153 0.091700 0.525026 0.851062 0.006448 
0.030135 -0.024940 0.109975 0.810197 0.585888 0.017769 
0.011271 -0.009239 0.091373 0.551367 0.833937 0.023338 
-0.009949 0.002908 0.123163 0.326083 0.943677 -0.056071 
-0.011444 0.003339 0.123486 0.311141 0.947448 -0.074395 
0.006204 -0.006026 0.091412 0.543286 0.839366 0.017475 
-0.008233 0.002168 0.122536 0.364851 0.929069 -0.060952 
0.006609 -0.006339 0.092237 0.498642 0.866633 -0.017405 
0.028790 -0.023410 0.109794 0.724155 0.689630 -0.003178 
0.005069 -0.005436 0.092475 0.507254 0.861549 -0.020668 
0.005397 -0.005482 0.094306 0.517239 0.854793 -0.042353 
0.007548 -0.006827 0.092747 0.517345 0.855557 -0.019405 
-0.006561 0.001592 0.123678 0.385403 0.920861 -0.058988 
0.008568 -0.007492 0.093371 0.545001 0.838432 -0.002175 
0.009647 -0.008151 0.093823 0.518783 0.854848 -0.009984 
0.030562 -0.026031 0.115406 0.893861 0.442301 0.073368 
0.030007 -0.024897 0.113573 0.825028 0.564189 0.031923 
0.029034 -0.023620 0.111811 0.761293 0.648354 0.008408 
-0.006083 0.001463 0.124890 0.384656 0.920833 -0.064076 
-0.008417 0.002356 0.124080 0.367478 0.928723 -0.049333 
-0.007922 0.002225 0.125901 0.339919 0.936354 -0.087725 
0.006562 -0.006255 0.094696 0.523773 0.851855 0.002110 
0.007961 -0.007019 0.094187 0.552627 0.833362 -0.010547 
0.008645 -0.007584 0.094659 0.544423 0.837966 -0.037644 
0.008998 -0.007700 0.095350 0.511911 0.857700 -0.047924 
0.010292 -0.008511 0.094718 0.525753 0.850173 -0.028087 
-0.010392 0.003175 0.125287 0.334807 0.940112 -0.063988 
0.026531 -0.020957 0.111688 0.697667 0.716351 -0.010091 
0.027875 -0.022323 0.110880 0.734715 0.678310 -0.009488 
0.000216 -0.002650 0.092936 0.476591 0.878904 -0.019738 
0.001290 -0.003170 0.094674 0.489055 0.871413 -0.038263 
-0.000530 -0.002191 0.094751 0.473007 0.880090 -0.041297 
0.011454 -0.007290 0.136348 0.437931 0.825886 -0.355147 
0.012523 -0.007239 0.137147 0.474267 0.787487 -0.393618 
-0.001394 -0.001800 0.093156 0.457387 0.888574 -0.035119 
-0.012165 0.003893 0.127033 0.310797 0.948407 -0.062689 
0.000071 -0.002475 0.096406 0.486289 0.873593 -0.018928 
-0.014239 0.004561 0.127255 0.289681 0.954951 -0.064449 
0.027278 -0.021695 0.112793 0.720626 0.693319 0.002663 
0.003134 -0.004209 0.094840 0.486355 0.873348 -0.026866 
0.028440 -0.022976 0.114226 0.753826 0.657047 0.006016 
-0.001869 -0.001630 0.091318 0.484378 0.874733 -0.014814 
-0.002945 -0.001042 0.092781 0.487576 0.872240 -0.038305 
-0.006961 0.001946 0.126040 0.356917 0.928425 -0.103135 
0.022248 -0.017162 0.103116 0.644796 0.764330 0.006132 
0.006048 -0.005398 0.145845 0.610201 0.530154 0.588721 
0.008891 -0.007430 0.144500 0.654742 0.493392 0.572606 
0.009931 -0.006373 0.142315 0.677216 0.515083 0.525422 
-0.003425 -0.000566 0.095933 0.470182 0.882530 -0.008383 
-0.002238 -0.001248 0.095902 0.468006 0.883573 -0.016392 
-0.009000 0.002864 0.128070 0.352431 0.933456 -0.066722 
-0.001236 -0.000311 0.131410 0.444510 0.894162 -0.053715 
-0.002040 0.000230 0.134476 0.433976 0.900142 -0.037548 
0.000521 -0.001092 0.133765 0.455187 0.889288 -0.044399 
0.022324 -0.017145 0.106621 0.651877 0.758310 -0.004705 
0.024068 -0.018706 0.107123 0.670549 0.741852 -0.004480 
-0.000778 -0.001946 0.095880 0.482871 0.875564 -0.014945 
-0.001653 -0.001563 0.096855 0.452185 0.891924 -0.000462 
-0.004337 -0.000178 0.097146 0.468509 0.883071 0.026188 
-0.003156 -0.000761 0.096865 0.471522 0.881811 0.008698 
-0.005909 0.001622 0.128370 0.390499 0.918269 -0.065519 
-0.005665 0.001352 0.126488 0.398983 0.915286 -0.055347 
0.002126 -0.001836 0.135383 0.466563 0.883240 -0.046965 
0.002556 -0.002229 0.132327 0.470744 0.880859 -0.049876 
-0.002396 -0.001166 0.098619 0.459334 0.887509 -0.036604 
-0.004144 0.000441 0.123023 0.418720 0.906557 -0.053184 
0.002097 -0.003564 0.097187 0.475730 0.878914 -0.034520 
-0.004309 0.000792 0.125482 0.407983 0.910926 -0.061341 
-0.000963 -0.001819 0.098413 0.452340 0.891084 -0.036861 
0.000650 -0.002687 0.099355 0.487401 0.872903 -0.021926 
-0.001058 -0.000185 0.136693 0.441846 0.896139 -0.041314 
0.004635 -0.003279 0.134596 0.495287 0.867467 -0.046815 
-0.002391 -0.000210 0.125726 0.448913 0.891471 -0.061288 
0.004290 -0.004839 0.094521 0.480111 0.877093 -0.014233 
0.020341 -0.015455 0.109956 0.628643 0.777556 -0.014686 
-0.003737 0.000614 0.127254 0.421072 0.904861 -0.062645 
0.005401 -0.005411 0.095778 0.525060 0.846652 0.086563 
0.004361 -0.004881 0.097633 0.586968 0.806542 -0.070409 
0.005497 -0.005612 0.096485 0.511378 0.858560 0.036977 
0.004091 -0.004893 0.096266 0.548691 0.835947 -0.011415 
0.004249 -0.002809 0.138480 0.436572 0.874086 -0.213024 
0.003611 -0.004500 0.096217 0.557134 0.829024 -0.048172 
0.012329 -0.009838 0.090563 0.571958 0.820204 0.011334 
0.000112 -0.001429 0.125588 0.455052 0.888154 -0.064111 
0.003654 -0.004335 0.097162 0.543326 0.831705 -0.114293 
0.008042 -0.007070 0.095643 0.529519 0.848223 -0.011317 
0.008317 -0.007264 0.097859 0.530923 0.846699 0.034932 
0.010210 -0.008400 0.096545 0.527339 0.849631 -0.006302 
-0.001369 -0.000532 0.127679 0.444828 0.892785 -0.071155 
0.004873 -0.005215 0.098229 0.541338 0.840302 -0.029092 
0.014015 -0.011180 0.093187 0.581247 0.812654 0.041770 
0.015198 -0.011878 0.092502 0.517574 0.855260 0.025453 
0.013165 -0.010497 0.092575 0.580067 0.814555 0.004713 
0.006520 -0.006132 0.099055 0.518826 0.854139 -0.035580 
0.016335 -0.012489 0.091668 0.545093 0.838109 0.021131 
