-0.080096 -0.036605 0.027616 -6.246143 -0.628287 -0.028296 
-0.048935 -0.052500 0.037999 0.501952 -6.261352 -0.136244 
-0.080209 -0.035909 0.031809 -6.249414 -0.587842 -0.041198 
-0.080024 -0.037002 0.030380 -6.240570 -0.642464 -0.006614 
-0.079900 -0.038594 0.032500 -6.189083 -1.011774 -0.010070 
-0.080058 -0.036808 0.033115 -6.202553 -0.870056 -0.066875 
-0.042963 -0.052119 0.040031 0.460049 -6.264836 -0.091775 
-0.081228 -0.019359 0.006241 -6.272214 0.082160 -0.114406 
-0.081256 -0.019221 0.004717 -6.258879 0.247527 0.271860 
-0.081161 -0.021284 0.004944 -6.266756 -0.403475 0.137565 
-0.079885 -0.038340 0.012507 -6.212895 -0.828713 0.040039 
-0.079893 -0.038232 0.015163 -6.224991 -0.776890 -0.012752 
-0.080008 -0.036538 0.014250 -6.268537 -0.425538 -0.021127 
-0.080022 -0.035875 0.012424 -6.266167 -0.432220 -0.046646 
-0.080114 -0.034481 0.010783 -6.221509 -0.767915 -0.016450 
-0.045178 -0.052297 0.042035 0.462578 -6.265010 -0.115841 
-0.041311 -0.051986 0.041670 0.452253 -6.264333 -0.104705 
-0.080120 -0.034618 0.016093 -6.254006 -0.555906 -0.045336 
-0.080010 -0.036540 0.016716 -6.270576 -0.395973 -0.034226 
-0.079922 -0.038184 0.019855 -6.213661 -0.838396 -0.076413 
-0.080059 -0.035932 0.017808 -6.267565 -0.436083 -0.049360 
-0.080159 -0.033870 0.020311 -6.270846 -0.310095 0.024535 
-0.080224 -0.034098 0.018245 -6.259349 -0.447009 0.081630 
-0.080117 -0.035459 0.020410 -6.273496 -0.306263 -0.130329 
-0.038891 -0.051809 0.040556 0.430476 -6.267253 -0.110144 
-0.036201 -0.051648 0.040370 0.457602 -6.261892 -0.168653 
-0.080255 -0.032863 0.019279 -6.257764 -0.517579 0.133122 
-0.080232 -0.034484 0.022913 -6.267192 -0.220943 -0.141502 
-0.080167 -0.033314 0.022387 -6.237815 -0.294033 -0.184344 
-0.080480 -0.030819 0.021528 -6.254986 -0.567534 -0.084937 
-0.039444 -0.051921 0.043358 0.428387 -6.266849 -0.132699 
-0.080333 -0.032934 0.024800 -6.264996 -0.439773 -0.144821 
-0.080731 -0.027489 0.022984 -6.269569 -0.409142 -0.037785 
-0.080462 -0.030417 0.018870 -6.260186 -0.494468 0.057081 
-0.080620 -0.028987 0.017655 -6.256296 -0.510679 -0.114985 
-0.080610 -0.029658 0.025630 -6.268464 -0.418422 -0.022946 
-0.080394 -0.032880 0.027628 -6.262524 -0.487735 -0.040665 
-0.042760 -0.052186 0.045721 0.462396 -6.265130 -0.110210 
-0.042315 -0.052127 0.043593 0.447895 -6.265385 -0.134021 
-0.080736 -0.027283 0.026218 -6.269565 -0.402294 -0.028223 
-0.081126 -0.023219 0.024841 -6.247097 -0.460627 0.100499 
-0.080927 -0.024709 0.025002 -6.252210 -0.603193 -0.005344 
-0.081006 -0.023576 0.027669 -6.271531 -0.365467 0.014228 
-0.081131 -0.021149 0.026455 -6.280253 -0.053607 0.014847 
-0.081068 -0.020364 0.023175 -6.276480 0.192573 0.081459 
-0.062622 -0.053678 0.003440 0.001278 -6.224903 -0.027692 
-0.065741 -0.053304 0.003563 -1.146678 -6.157602 -0.042823 
-0.040049 -0.051986 0.045828 0.431179 -6.267140 -0.105423 
-0.058679 -0.053375 0.003391 0.493685 -6.224914 -0.262881 
-0.041368 -0.052143 0.048466 0.426166 -6.267723 -0.103902 
-0.039182 -0.051990 0.048387 0.415408 -6.268146 -0.125758 
-0.056284 -0.052852 0.001982 1.094327 -6.058985 -0.674264 
-0.056957 -0.053292 0.003111 0.348229 -6.008526 -0.965608 
-0.080199 -0.034085 0.013416 -6.257516 -0.563068 -0.013863 
-0.080268 -0.033270 0.015328 -6.255063 -0.589455 0.002495 
-0.067516 -0.052186 -0.002559 -1.264446 -4.380502 -3.992000 
-0.069396 -0.051994 -0.001881 -2.017621 -5.303190 -2.206989 
-0.071240 -0.051114 -0.002104 -2.434843 -4.708107 -2.644672 
-0.080448 -0.030734 0.009045 -6.260972 -0.519078 -0.037005 
-0.080193 -0.033947 0.008679 -6.260915 -0.518135 -0.015798 
-0.080279 -0.033637 0.010828 -6.220243 -0.728862 -0.000516 
-0.064820 -0.053012 -0.002430 -0.691794 -4.600682 -3.359755 
-0.077428 -0.045134 0.006674 -5.355674 -3.278306 -0.002881 
-0.077055 -0.045795 0.005220 -5.248135 -3.422540 0.001264 
-0.080430 -0.031544 0.013281 -6.266464 -0.387042 0.030908 
-0.080528 -0.029525 0.010318 -6.277449 -0.135613 0.000150 
-0.076174 -0.046943 0.007272 -5.066914 -3.714031 -0.047796 
-0.080563 -0.029234 0.012625 -6.180013 0.408376 0.375082 
-0.080507 -0.028375 0.011306 -6.248502 -0.344260 -0.003294 
-0.080432 -0.029132 0.013727 -6.246510 -0.308780 0.132207 
-0.062321 -0.053523 -0.001607 -0.282945 -5.869574 -1.699937 
-0.080467 -0.031608 0.017765 -6.242455 -0.408991 0.101440 
-0.060685 -0.053467 -0.001957 0.283776 -5.379016 -2.300237 
-0.080548 -0.028626 0.016436 -6.235613 -0.525414 -0.390957 
-0.080595 -0.027929 0.015064 -6.246302 -0.673751 -0.076592 
-0.080814 -0.025731 0.018709 -6.261620 -0.493190 0.035960 
-0.080735 -0.027572 0.016882 -6.228679 -0.579440 -0.294452 
-0.080442 -0.030991 0.016027 -6.273769 -0.303674 -0.117390 
-0.078036 -0.044113 0.013558 -5.545536 -2.937217 -0.019518 
-0.056088 -0.053043 -0.000012 1.250555 -6.067343 0.255626 
-0.078770 -0.042537 0.014149 -5.863491 -2.222091 -0.040241 
-0.080670 -0.027195 0.011881 -6.214726 -0.914648 -0.029219 
-0.080514 -0.028468 0.008762 -6.243710 -0.320555 0.081185 
-0.080579 -0.029463 0.008015 -6.258366 -0.162327 0.032315 
-0.079550 -0.039962 0.013614 -6.092714 -1.512437 -0.003526 
-0.080816 -0.025741 0.008308 -6.268147 -0.380396 -0.078209 
-0.075778 -0.047555 0.009219 -4.858365 -3.913424 0.059900 
-0.053254 -0.052016 0.000805 0.566158 -6.028183 0.236269 
-0.080882 -0.026112 0.012904 -6.172829 -0.799019 0.170011 
-0.080921 -0.024357 0.012291 -6.259250 -0.466161 0.042645 
-0.073051 -0.050072 0.006805 -3.595066 -5.151943 0.007437 
-0.080856 -0.024367 0.008763 -6.250144 -0.505091 -0.099226 
-0.081083 -0.022962 0.009697 -6.244815 -0.560199 0.010762 
-0.081125 -0.023006 0.012348 -6.194938 -0.493828 -0.243015 
-0.081095 -0.021840 0.011017 -6.262830 -0.439952 -0.011306 
-0.080955 -0.023117 0.005900 -6.240200 -0.656427 0.041913 
-0.081160 -0.021998 0.007221 -6.245363 -0.520446 -0.064671 
-0.081162 -0.020741 0.008736 -6.270117 -0.333723 0.030981 
-0.050192 -0.052221 0.001383 -0.000266 -6.245619 0.403272 
-0.049391 -0.052253 0.002444 0.403975 -5.661315 -2.208288 
-0.081268 -0.020207 0.010616 -6.259023 -0.266792 -0.103678 
-0.075721 -0.047613 0.011773 -4.723936 -4.081219 -0.149344 
-0.080833 -0.025601 0.015631 -6.257699 -0.544776 -0.077546 
-0.080846 -0.024328 0.013835 -6.211456 -0.583112 0.032275 
-0.081068 -0.023188 0.015205 -6.258823 -0.357864 -0.066115 
-0.081053 -0.021960 0.014818 -6.261009 -0.280010 0.018029 
-0.081086 -0.023319 0.018322 -6.257615 -0.434855 0.103814 
-0.073359 -0.049887 0.012668 -3.666921 -5.098155 -0.082634 
-0.071306 -0.051318 0.014233 -3.142537 -5.398339 0.120210 
-0.081263 -0.020434 0.012870 -6.250916 -0.267703 0.127221 
-0.081207 -0.018662 0.013167 -6.254127 0.454378 0.094648 
-0.081241 -0.018394 0.009791 -6.234463 0.545953 0.170614 
-0.081156 -0.020992 0.014809 -6.263043 -0.417987 0.084249 
-0.050222 -0.052399 -0.002131 -0.211366 -5.823448 -1.743382 
-0.081243 -0.019984 0.016096 -6.261943 -0.020613 -0.130325 
-0.031410 -0.051049 0.012927 0.455428 -6.255498 -0.191958 
-0.081171 -0.018658 0.015399 -6.252044 0.481229 -0.060666 
-0.049566 -0.052046 -0.002845 0.009043 -3.925866 -4.232564 
-0.029594 -0.050945 0.014199 0.662083 -6.241417 -0.202550 
-0.080981 -0.016854 0.013433 -6.031362 1.526502 0.002421 
-0.080850 -0.016871 0.015562 -6.103150 1.464246 0.001350 
-0.076014 -0.047349 0.013195 -4.905142 -3.800070 0.090770 
-0.080893 -0.024515 0.022047 -6.229548 -0.716188 -0.064603 
-0.027947 -0.050784 0.013276 0.462993 -6.262194 -0.029998 
-0.076212 -0.046757 0.014295 -5.154312 -3.453003 0.190907 
-0.077173 -0.045604 0.016569 -5.296059 -3.353481 0.000700 
-0.075663 -0.047717 0.015074 -4.705559 -4.074914 0.015979 
-0.033775 -0.051244 0.013975 0.526798 -6.254077 0.131220 
-0.080478 -0.031211 0.028674 -6.266515 -0.424255 -0.025284 
-0.044449 -0.051716 0.001726 0.480387 -6.219530 0.360669 
-0.046379 -0.051944 0.002464 0.516401 -5.636992 -2.147441 
-0.080610 -0.029583 0.027793 -6.264096 -0.474736 -0.078687 
-0.069885 -0.051971 0.017185 -2.727899 -5.645539 0.012146 
-0.080629 -0.029794 0.029814 -6.252172 -0.612624 0.009239 
-0.080501 -0.031116 0.030777 -6.272408 -0.248325 -0.033820 
-0.073365 -0.049920 0.017321 -3.631559 -5.111001 -0.046092 
-0.071906 -0.050853 0.017742 -3.207607 -5.392971 -0.092122 
-0.031464 -0.051245 0.014765 0.349363 -6.168224 0.231099 
-0.073493 -0.049795 0.019844 -3.832119 -4.956728 0.010144 
-0.080834 -0.026493 0.028879 -6.271885 -0.341800 -0.047228 
-0.080832 -0.027896 0.029942 -6.252075 -0.273334 0.022855 
-0.079962 -0.029244 -0.001246 -6.068136 -0.009548 -1.382689 
-0.080295 -0.034011 0.031278 -6.250801 -0.557918 -0.048616 
-0.080250 -0.035461 0.029697 -6.248311 -0.384645 -0.127062 
-0.080511 -0.032463 0.030512 -6.244753 -0.392755 -0.109067 
-0.081032 -0.023342 0.020097 -6.264064 -0.418409 -0.038857 
-0.081188 -0.021593 0.017840 -6.265989 -0.279237 0.078254 
-0.081036 -0.022243 0.019575 -6.263596 -0.198560 0.085932 
-0.080161 -0.028882 0.000680 -6.190730 -0.909227 -0.111952 
-0.081143 -0.023230 0.022262 -6.214559 -0.621869 -0.128884 
-0.080818 -0.026394 -0.000304 -6.037459 -0.988222 -0.569834 
-0.081150 -0.019848 0.020227 -6.264639 0.250627 0.077728 
-0.033931 -0.051410 -0.002411 0.114897 -5.149330 -2.448219 
-0.081190 -0.019203 0.017593 -6.257096 0.354424 0.258099 
-0.028435 -0.050975 -0.002473 0.555377 -4.954430 -3.314719 
-0.027995 -0.051137 -0.001773 0.630927 -6.083858 -0.769568 
-0.025311 -0.050522 -0.002436 0.648077 -4.687136 -3.764038 
-0.081144 -0.017644 0.016881 -6.100184 0.998316 0.099330 
-0.080818 -0.016925 0.018507 -6.131522 1.202358 0.445271 
-0.080844 -0.016579 0.017974 -5.899752 1.665271 0.790785 
-0.023801 -0.050491 -0.002297 0.183840 -5.290456 -2.715636 
-0.080948 -0.017944 0.021359 -6.250438 0.570938 -0.164722 
-0.071847 -0.050868 0.021398 -3.241830 -5.379791 -0.009766 
-0.069840 -0.052010 0.020249 -2.710281 -5.650698 -0.010286 
-0.081224 -0.022046 0.023622 -6.140660 0.380156 0.349688 
-0.081108 -0.022058 0.000429 -6.175335 -0.236572 -0.706669 
-0.080502 -0.020705 -0.000911 -4.486451 0.823449 -4.091851 
-0.079639 -0.020593 -0.001452 -1.892830 0.763624 -5.768222 
-0.070050 -0.051908 0.022468 -2.801669 -5.597842 0.088554 
-0.069643 -0.052053 0.024959 -2.621073 -5.698905 0.046317 
-0.081051 -0.019238 0.000471 -5.936251 0.435829 -1.547132 
-0.081060 -0.018586 0.023082 -6.209111 0.606576 0.213212 
-0.080818 -0.016616 0.021090 -6.089567 1.372497 -0.119712 
-0.081025 -0.017176 0.022848 -6.068273 0.658413 -0.050200 
-0.080605 -0.016035 0.021785 -5.968081 1.949378 0.021002 
-0.080901 -0.017927 0.024820 -6.221004 -0.087347 -0.158460 
-0.081110 -0.019048 0.026650 -6.271980 0.217250 -0.107660 
-0.036663 -0.051414 -0.002079 -0.174696 -5.654523 -1.921269 
-0.035815 -0.051143 -0.002615 -0.442062 -4.550702 -4.143628 
-0.081002 -0.017068 0.024660 -6.025284 0.909054 0.015593 
-0.080625 -0.016143 0.024443 -5.937564 2.021834 0.055848 
-0.032513 -0.051400 -0.001821 0.261531 -6.245057 0.039588 
-0.035404 -0.051257 0.002485 0.060664 -5.458012 -2.526292 
-0.036416 -0.051133 0.002573 -0.464043 -4.991361 -2.531055 
-0.073546 -0.049817 0.023965 -3.944140 -4.829055 0.003971 
-0.044076 -0.051705 0.002466 0.334249 -5.500409 -2.036781 
-0.042037 -0.051746 0.002596 0.502952 -5.518877 -2.542317 
-0.040098 -0.051381 0.002631 1.233331 -5.014115 -2.838995 
-0.069744 -0.052068 0.030171 -2.604410 -5.688460 -0.063267 
-0.068449 -0.052526 0.028902 -2.046385 -5.933769 -0.037518 
-0.063861 -0.053446 0.011379 -0.251851 -6.265624 -0.028980 
-0.067382 -0.052900 0.031951 -1.583941 -6.062751 -0.021551 
-0.031218 -0.050920 0.002446 0.380039 -5.229990 -2.321703 
-0.026522 -0.050695 0.002132 0.903379 -5.925093 -1.371523 
-0.028858 -0.051251 0.006046 0.464572 -6.238838 0.403096 
-0.029275 -0.051127 0.007569 0.417422 -6.247458 0.394640 
-0.064381 -0.053453 0.017740 -0.644879 -6.238901 0.124513 
-0.063419 -0.053376 0.012386 -0.208089 -6.204163 -0.252249 
-0.063898 -0.053485 0.015405 -0.175234 -6.265087 -0.375936 
-0.072712 -0.050381 0.032710 -3.477600 -5.208848 0.044874 
-0.073759 -0.049714 0.028981 -3.975526 -4.718894 0.130182 
-0.074442 -0.048938 0.025547 -4.694751 -4.135467 -0.047913 
-0.074017 -0.049360 0.031025 -4.302864 -4.533492 0.052988 
-0.074885 -0.048337 0.031236 -4.585895 -4.281661 -0.055661 
-0.074046 -0.049338 0.034039 -4.267420 -4.552552 0.053501 
-0.070636 -0.051530 0.033577 -3.162315 -5.426024 0.059183 
-0.069722 -0.052126 0.033116 -2.740019 -5.588779 0.018923 
-0.071674 -0.050966 0.035547 -3.265290 -5.360351 -0.009985 
-0.069547 -0.052115 0.035632 -2.635536 -5.694044 0.006730 
-0.076038 -0.046657 -0.002216 -3.726917 -2.970511 -3.240405 
-0.076921 -0.045556 -0.001877 -4.977489 -3.047551 -1.917391 
-0.075858 -0.047351 -0.000916 -4.810774 -3.889037 -0.634909 
-0.073797 -0.049580 -0.001473 -4.055340 -4.342369 -1.241141 
-0.074058 -0.049339 0.000876 -4.335423 -4.508283 0.129307 
-0.071961 -0.050822 0.038860 -3.432001 -5.247735 0.021186 
-0.070464 -0.051695 0.037687 -2.882681 -5.570168 0.000206 
-0.070699 -0.051510 0.040496 -2.882844 -5.580892 0.024470 
-0.068682 -0.052489 0.041616 -2.267948 -5.839741 -0.019257 
-0.074609 -0.048677 0.034782 -4.497513 -4.372888 -0.089145 
-0.075575 -0.047847 0.035224 -4.511483 -4.286777 -0.202591 
-0.072966 -0.050070 0.035597 -3.498893 -5.213285 0.009531 
-0.073659 -0.049681 0.037052 -3.725704 -4.997391 -0.141903 
-0.075699 -0.047588 0.032076 -4.594060 -4.262399 -0.089584 
-0.072491 -0.050620 -0.001324 -3.319601 -5.090276 -0.832004 
-0.074929 -0.048454 0.037217 -4.569881 -4.301716 -0.021551 
-0.076540 -0.046571 0.036322 -5.095496 -3.655002 0.045829 
-0.072939 -0.050229 0.002575 -3.665246 -5.080445 0.010506 
-0.072937 -0.050097 0.038566 -3.173616 -5.380972 -0.093724 
-0.079928 -0.037056 0.001992 -6.242737 -0.685506 -0.118232 
-0.079953 -0.037699 0.004777 -6.223069 -0.761796 -0.035122 
-0.079771 -0.038876 0.006959 -6.186506 -1.059755 -0.052746 
-0.080021 -0.035710 0.005649 -6.253141 -0.460604 0.128973 
-0.079964 -0.038240 0.009845 -6.188475 -0.792387 0.005062 
-0.080339 -0.031529 0.007278 -6.251154 -0.568851 -0.079244 
-0.080478 -0.030664 0.006725 -6.189212 -0.766294 -0.309550 
-0.080122 -0.030102 0.000599 -6.222975 0.619051 0.089666 
-0.074431 -0.049016 0.022199 -4.735989 -4.008444 0.052923 
-0.074583 -0.048778 0.019855 -4.506813 -4.371912 -0.013965 
-0.076138 -0.047081 0.025880 -4.799675 -4.006305 0.025568 
-0.075801 -0.047429 0.022327 -4.765505 -4.077757 0.043323 
-0.074766 -0.048463 0.023433 -4.648381 -4.210688 0.107311 
-0.075070 -0.048112 0.027624 -4.687804 -4.170625 0.031295 
-0.078499 -0.043228 0.015903 -5.671830 -2.644859 0.131680 
-0.079677 -0.039144 0.017596 -6.182072 -0.978446 0.050366 
-0.079558 -0.040100 0.020668 -6.091305 -1.512652 -0.057867 
-0.079767 -0.039293 0.022376 -6.152279 -1.180933 0.011702 
-0.075828 -0.047446 0.018557 -4.760554 -4.071921 -0.014914 
-0.076786 -0.046141 0.020242 -5.158200 -3.580398 0.036921 
-0.078468 -0.043268 0.020208 -5.694691 -2.615035 -0.031287 
-0.077750 -0.044600 0.022375 -5.468327 -3.082555 0.019305 
-0.076937 -0.045915 0.023717 -5.217014 -3.492959 -0.027661 
-0.079179 -0.041413 0.022103 -5.950695 -1.993385 0.013682 
-0.078657 -0.042731 0.024451 -5.805542 -2.387830 -0.005549 
-0.076518 -0.046587 0.028065 -4.971251 -3.802304 -0.065587 
-0.076293 -0.046922 0.030167 -4.839796 -3.952789 0.026543 
-0.078040 -0.044182 0.035754 -5.553462 -2.896024 -0.004467 
-0.078148 -0.043932 0.026700 -5.599082 -2.819077 -0.034299 
-0.079596 -0.040028 0.025750 -6.067460 -1.576220 -0.037001 
-0.079014 -0.041857 0.027246 -5.904071 -2.132393 -0.041726 
-0.078384 -0.043454 0.029016 -5.661399 -2.694521 -0.006884 
-0.077510 -0.045045 0.027998 -5.381438 -3.235011 0.006662 
-0.079697 -0.039691 0.028380 -6.112145 -1.326112 -0.041938 
-0.079523 -0.040231 0.030907 -6.068592 -1.611585 -0.000653 
-0.079852 -0.038676 0.025840 -6.201963 -0.978339 0.037500 
-0.080018 -0.037563 0.024664 -6.227832 -0.680763 -0.206731 
-0.079791 -0.038369 0.027801 -6.197072 -0.782041 -0.093120 
-0.079004 -0.041958 0.032843 -5.881142 -2.178930 0.001453 
-0.079566 -0.040128 0.035535 -6.099702 -1.481032 -0.023673 
-0.079981 -0.038143 0.029493 -6.207272 -0.795459 -0.075836 
-0.081331 -0.019272 0.008562 -6.213339 -0.269325 0.224700 
-0.020068 -0.048487 -0.003016 -0.118793 1.708737 -5.803656 
-0.031096 -0.051030 0.025768 0.483788 -6.263033 -0.084916 
-0.032551 -0.051360 0.039251 0.372592 -6.267665 -0.115723 
-0.033368 -0.051324 0.036934 0.424706 -6.266812 -0.104933 
-0.031080 -0.051226 0.038703 0.431798 -6.266254 -0.154369 
-0.019892 -0.050143 -0.002765 0.022869 -3.679550 -4.718538 
-0.017553 -0.050649 -0.002010 0.141403 -5.547057 -1.951529 
-0.021123 -0.050441 -0.002337 -0.067600 -5.448864 -2.934745 
-0.016477 -0.049935 -0.002789 0.195762 -3.168773 -5.128943 
-0.028832 -0.050861 0.023611 0.427216 -6.268445 -0.018251 
-0.029341 -0.051092 0.037479 0.366072 -6.271780 -0.080739 
-0.030900 -0.051159 0.034528 0.367317 -6.272080 -0.036544 
-0.028807 -0.051043 0.035435 0.377175 -6.270263 -0.128846 
-0.029251 -0.050927 0.026433 0.411198 -6.269050 -0.074468 
-0.018193 -0.049274 -0.003080 0.081768 -0.833414 -6.043040 
-0.017471 -0.048392 -0.002982 0.012987 1.980323 -5.791719 
-0.021369 -0.050661 -0.000276 -0.466892 -6.151199 0.788989 
-0.031802 -0.051146 0.027783 0.531460 -6.249639 0.072864 
-0.012224 -0.050254 0.041302 0.372036 -6.268600 -0.167982 
-0.014675 -0.050287 0.038207 0.379491 -6.269532 -0.157599 
-0.011587 -0.050105 0.038971 0.358647 -6.268022 -0.216608 
-0.019322 -0.050644 -0.000392 0.157742 -6.228622 0.643121 
-0.020927 -0.050480 0.000921 -0.257509 -6.239140 0.517159 
-0.027072 -0.050975 0.036737 0.384792 -6.269633 -0.061687 
-0.015614 -0.048895 -0.003014 0.073746 -0.115315 -6.187746 
-0.013859 -0.050378 -0.002261 0.515340 -4.952404 -3.038177 
-0.014556 -0.050602 -0.001570 0.397006 -6.142959 -0.552781 
-0.009744 -0.050053 0.040000 0.294165 -6.274226 -0.111749 
-0.026894 -0.050956 0.038904 0.345150 -6.270967 -0.124812 
-0.027066 -0.050763 0.026357 0.418928 -6.268370 -0.085041 
-0.016028 -0.047355 -0.002348 -0.237634 3.973389 -4.790086 
-0.018719 -0.047646 -0.002507 -0.135032 3.995942 -4.762637 
-0.027989 -0.051091 0.041519 0.351303 -6.271249 -0.154967 
-0.020556 -0.046762 -0.001354 -0.112408 3.900137 -4.756751 
-0.020828 -0.046109 -0.001005 -0.027722 1.886304 -5.871254 
-0.030929 -0.051042 0.028631 0.478173 -6.262576 -0.072064 
-0.025089 -0.050920 0.039979 0.366490 -6.268819 -0.170914 
-0.018728 -0.046403 -0.001172 -0.248712 3.137406 -5.204888 
-0.006776 -0.049976 0.043719 0.308863 -6.274017 -0.134242 
-0.007169 -0.049953 0.040610 0.323514 -6.272161 -0.152136 
-0.036793 -0.051684 0.041793 0.373762 -6.269736 -0.105938 
-0.017307 -0.046610 -0.001378 -0.220937 3.655529 -4.887355 
-0.010513 -0.050166 0.043206 0.370408 -6.270968 -0.120524 
-0.036565 -0.051720 0.043456 0.404314 -6.268638 -0.133358 
-0.017595 -0.045564 -0.000962 -0.134590 1.348132 -6.088925 
-0.015615 -0.046144 -0.001139 -0.186645 2.905716 -5.306080 
-0.034709 -0.051438 0.038701 0.440590 -6.263119 -0.180557 
-0.028339 -0.050900 0.029142 0.355934 -6.271201 -0.121414 
-0.014335 -0.049446 -0.002929 0.239110 -2.073856 -5.746291 
-0.013520 -0.048773 -0.003001 0.171233 -0.220721 -6.138123 
-0.029441 -0.050924 0.029616 0.164151 -6.226495 -0.332957 
-0.014706 -0.048176 -0.002879 -0.111599 2.136664 -5.822937 
-0.008453 -0.050144 0.047048 0.342820 -6.272607 -0.117909 
-0.033037 -0.051381 0.041063 0.445616 -6.263145 -0.149619 
-0.034658 -0.051592 0.042499 0.483218 -6.260283 -0.159718 
-0.013178 -0.047227 -0.002430 -0.250916 3.796491 -4.848829 
-0.013135 -0.049881 -0.002666 0.600732 -3.326697 -4.946897 
-0.024693 -0.050637 0.027198 0.430837 -6.267543 -0.069355 
-0.026242 -0.050688 0.024413 0.390029 -6.270586 -0.026342 
-0.011399 -0.048124 -0.002925 0.075535 1.202696 -5.946218 
-0.010949 -0.048989 -0.002850 0.511468 -2.074849 -5.604980 
-0.023484 -0.050534 0.026012 0.374615 -6.271145 -0.075380 
-0.012705 -0.046175 -0.001244 -0.271332 3.070774 -5.098177 
-0.003716 -0.049694 0.038173 0.218299 -6.277241 -0.091564 
-0.005587 -0.049743 0.036340 0.326446 -6.272224 -0.033018 
-0.002496 -0.049661 0.036189 0.183628 -6.279000 -0.105921 
-0.011293 -0.047032 -0.002378 -0.266293 3.852720 -4.796292 
-0.033696 -0.051545 0.043979 0.449081 -6.265045 -0.143300 
-0.030749 -0.051243 0.040713 0.395405 -6.269408 -0.121421 
-0.010588 -0.046409 -0.001688 -0.366840 4.232500 -4.573436 
-0.000782 -0.049649 0.038169 0.344446 -6.267027 -0.069076 
-0.030802 -0.051322 0.043661 0.419095 -6.266665 -0.175414 
-0.014543 -0.045389 -0.000983 -0.156293 1.067261 -6.170017 
-0.007424 -0.049913 0.039024 0.432241 -6.265047 -0.116853 
-0.004261 -0.049813 0.041769 0.298097 -6.274245 -0.148888 
-0.025747 -0.050726 0.029335 0.456988 -6.261071 -0.220647 
-0.012012 -0.044561 -0.000934 -0.085149 0.819835 -6.222082 
-0.008764 -0.047888 -0.002777 0.088639 0.622224 -6.210753 
-0.008426 -0.048827 -0.002739 0.043171 -2.391503 -5.367085 
-0.006411 -0.047787 -0.002854 0.279600 1.182808 -5.881316 
-0.000404 -0.049641 0.041029 0.398848 -6.267695 -0.101336 
-0.008222 -0.047081 -0.002578 -0.190690 3.108381 -5.205465 
-0.029045 -0.051254 0.045509 0.393530 -6.269362 -0.133901 
-0.005258 -0.048701 -0.002791 0.858943 -1.288377 -5.679209 
-0.005007 -0.048162 -0.002713 1.506269 1.123017 -5.804553 
-0.023810 -0.050583 0.029861 0.415588 -6.258451 -0.217463 
-0.002760 -0.049256 -0.001680 1.276807 -4.220408 -4.286890 
-0.002228 -0.048673 -0.001883 1.091612 -1.480821 -5.859291 
-0.003282 -0.047770 -0.002118 1.321369 1.411139 -5.898031 
-0.009237 -0.049872 -0.000823 0.364353 -6.137887 -0.448476 
-0.011656 -0.049977 -0.002147 1.135903 -5.106678 -3.041537 
-0.009303 -0.049386 -0.002351 0.801531 -4.890172 -3.519472 
0.001099 -0.049470 0.039078 0.664400 -6.246888 -0.104714 
-0.008675 -0.049554 -0.001864 -0.086710 -5.574268 -2.761484 
-0.038035 -0.051861 0.046023 0.402632 -6.268887 -0.126762 
-0.005641 -0.049853 -0.001808 0.199261 -5.437916 -2.602397 
-0.035876 -0.051706 0.045278 0.409521 -6.268406 -0.130038 
-0.009192 -0.049502 0.001009 0.159111 -6.038371 0.499580 
-0.008002 -0.049938 -0.000276 -0.641958 -6.186369 0.715984 
-0.017376 -0.050205 0.023905 0.275268 -6.277029 -0.017444 
-0.021335 -0.050387 0.022701 0.360308 -6.272600 -0.037826 
-0.019789 -0.050290 0.021260 0.254564 -6.276016 0.034425 
-0.017090 -0.050216 0.020953 0.256954 -6.276480 0.000495 
-0.010091 -0.045476 -0.001080 -0.230956 2.056732 -5.739528 
-0.007771 -0.046114 -0.001613 -0.377058 3.928389 -4.806976 
-0.035741 -0.051759 0.047540 0.408134 -6.268199 -0.137063 
-0.015027 -0.050080 0.021875 0.279999 -6.272372 0.108347 
-0.020742 -0.050370 0.025993 0.347515 -6.272260 -0.083067 
-0.022409 -0.050277 0.002332 -0.281228 -5.242289 -2.190836 
-0.033171 -0.051541 0.046092 0.420628 -6.267809 -0.120025 
-0.002016 -0.049752 0.043624 0.309001 -6.274878 -0.081824 
-0.033803 -0.051662 0.049126 0.420956 -6.267820 -0.110794 
-0.021862 -0.050861 0.006261 0.335989 -6.210376 0.749637 
-0.020094 -0.050793 0.004821 0.413049 -6.251239 0.427446 
-0.030727 -0.051408 0.047834 0.426007 -6.267266 -0.129961 
-0.023349 -0.050890 0.006419 0.305056 -6.217794 0.788970 
-0.031668 -0.051549 0.051003 0.418043 -6.268266 -0.103101 
-0.025157 -0.050786 0.007511 0.175518 -6.222970 0.422449 
-0.023939 -0.050800 0.007687 0.696709 -6.188489 0.389623 
-0.018262 -0.050262 0.026877 0.353719 -6.272701 -0.046351 
-0.023164 -0.050571 0.007856 0.753650 -6.068728 0.439680 
-0.031216 -0.051416 0.046032 0.425970 -6.267461 -0.116110 
-0.016428 -0.050167 0.027264 0.290887 -6.276316 0.001866 
-0.021707 -0.050610 0.007519 0.171608 -6.222284 0.687521 
-0.021751 -0.050572 0.009048 0.178922 -6.274128 0.125919 
-0.003791 -0.049868 0.044584 0.343514 -6.272075 -0.069867 
-0.005871 -0.049985 0.045862 0.340696 -6.272740 -0.108614 
-0.020128 -0.050980 0.002990 0.188278 -5.657726 -1.535824 
-0.013962 -0.050085 0.025106 0.243220 -6.276896 -0.047010 
-0.027549 -0.051203 0.047776 0.374024 -6.270645 -0.127162 
-0.017753 -0.050393 0.002199 0.265839 -5.915705 -1.772165 
-0.017813 -0.050830 0.003070 0.377829 -5.944134 -1.071213 
-0.012398 -0.049987 0.022922 0.244837 -6.277758 0.005742 
-0.014891 -0.050659 0.002989 0.366271 -5.940629 -1.058735 
-0.015706 -0.050493 0.004993 0.324713 -6.249432 0.506508 
-0.029033 -0.051349 0.050022 0.404358 -6.268746 -0.132273 
-0.025525 -0.050990 0.042281 0.352943 -6.271405 -0.145529 
0.000522 -0.049613 0.043212 0.557251 -6.254156 -0.065494 
-0.017316 -0.050494 0.006585 0.426842 -6.239901 0.584742 
-0.010986 -0.049947 0.024710 0.362890 -6.269704 -0.054631 
-0.024808 -0.050998 0.044325 0.379642 -6.270261 -0.110134 
-0.022085 -0.050788 0.043027 0.371093 -6.270593 -0.139853 
0.001648 -0.049456 0.041102 1.073121 -6.169759 -0.108320 
-0.026735 -0.051102 0.044446 0.338253 -6.272708 -0.127388 
0.001937 -0.049455 0.045021 1.156865 -6.158767 -0.081207 
-0.014156 -0.050041 0.027204 0.031295 -6.266510 0.124078 
-0.015460 -0.050137 0.028759 0.298265 -6.275557 -0.062156 
-0.025744 -0.051071 0.046164 0.360771 -6.271890 -0.105108 
-0.023138 -0.050905 0.045704 0.381185 -6.270380 -0.118324 
-0.002741 -0.049789 0.047355 0.292482 -6.272884 -0.093234 
-0.017503 -0.042474 -0.000656 -0.100249 0.515394 -6.260346 
-0.012986 -0.050158 0.026895 0.276337 -6.163476 -0.045808 
-0.021967 -0.050509 0.027807 0.371103 -6.267783 -0.118648 
-0.000333 -0.049693 0.045287 0.400082 -6.267205 -0.101377 
-0.015869 -0.050250 0.010673 0.231077 -6.273361 0.254542 
-0.017470 -0.050380 0.008047 0.344061 -6.266520 0.185401 
-0.015757 -0.050340 0.008497 0.252387 -6.263867 -0.093962 
-0.018054 -0.050261 0.011742 0.313171 -6.260393 0.220917 
-0.019310 -0.050440 0.010923 0.361304 -6.246146 0.506389 
-0.017597 -0.050371 0.009871 0.424830 -6.262583 0.233177 
-0.014790 -0.050213 0.002062 0.242817 -5.978678 -1.495143 
-0.012789 -0.050446 0.002837 0.371232 -6.138741 -0.765034 
-0.011290 -0.050355 0.002891 0.710824 -6.034639 -0.915149 
-0.013048 -0.050113 0.001562 0.263682 -6.138626 -0.168339 
-0.020274 -0.050381 0.029453 0.378683 -6.269776 -0.020999 
-0.021785 -0.050856 0.047367 0.344011 -6.273008 -0.086451 
-0.020052 -0.050746 0.046105 0.363192 -6.271482 -0.113780 
0.000071 -0.049741 0.047607 0.510534 -6.247794 -0.103253 
-0.013677 -0.050322 0.006398 0.340924 -6.247597 0.531852 
-0.021806 -0.050531 0.029567 0.405077 -6.259160 0.062761 
-0.008361 -0.050058 0.003002 -0.085948 -6.064620 -1.177355 
-0.009327 -0.050166 0.005552 0.353727 -6.244578 0.397182 
-0.021892 -0.050490 0.030762 0.296622 -6.248769 -0.328664 
-0.010943 -0.050174 0.006144 0.353364 -6.222255 0.719069 
0.002076 -0.049449 0.048487 1.197020 -6.161823 -0.112174 
-0.025461 -0.051134 0.049938 0.403396 -6.268412 -0.132686 
-0.007436 -0.049931 0.007566 0.196963 -6.269486 0.080171 
-0.009491 -0.049949 0.007718 0.255854 -6.265983 0.056544 
-0.008427 -0.049872 0.007158 0.167835 -6.188797 0.103986 
0.000252 -0.049534 0.036321 0.519350 -6.258649 -0.059999 
-0.008725 -0.049947 0.009247 0.324187 -6.272760 -0.056557 
-0.006198 -0.049842 0.009266 0.329607 -6.273218 -0.041121 
-0.018844 -0.050318 0.030845 0.429278 -6.258896 -0.246175 
-0.020672 -0.050554 0.031324 0.369255 -6.173795 -0.690251 
0.001949 -0.049332 0.037246 1.171358 -6.161862 -0.055784 
-0.017193 -0.050308 0.032618 0.373833 -6.268272 -0.196128 
-0.019166 -0.050445 0.032501 0.449170 -6.262678 -0.143236 
-0.026994 -0.051247 0.051190 0.373973 -6.270797 -0.124850 
-0.006922 -0.050017 0.005908 0.302526 -6.251811 0.416719 
-0.004386 -0.049920 0.004177 0.436549 -6.261588 0.274983 
-0.005710 -0.050095 0.002895 0.244056 -6.177573 -0.516165 
-0.005006 -0.049674 0.007218 0.105786 -6.184688 0.315022 
-0.004659 -0.049780 0.008790 0.041971 -6.279159 -0.143716 
-0.014307 -0.050277 0.009244 0.347050 -6.262060 0.105322 
-0.015664 -0.050258 0.007322 0.342845 -6.209897 0.411963 
-0.019018 -0.050342 0.028245 0.387641 -6.266012 -0.039254 
-0.017837 -0.050226 0.028360 0.412281 -6.266521 -0.018059 
-0.023412 -0.050970 0.047668 0.447283 -6.264490 0.001245 
-0.016177 -0.050214 0.012783 0.264209 -6.276900 0.063516 
-0.014455 -0.050132 0.011740 0.323988 -6.269880 0.188928 
-0.012127 -0.050039 0.011002 0.269129 -6.270656 0.233705 
-0.023606 -0.050940 0.048984 0.479401 -6.249307 -0.024303 
0.003079 -0.049064 0.035747 1.519655 -6.089949 -0.052793 
0.004680 -0.048629 0.038000 2.022666 -5.932158 -0.053694 
-0.010693 -0.050113 0.009483 0.270045 -6.257725 0.068872 
-0.019761 -0.050787 0.049874 0.341916 -6.272678 -0.120051 
-0.009537 -0.049906 0.011515 0.217283 -6.265967 0.259086 
-0.008970 -0.049974 0.010655 0.264680 -6.260040 0.331898 
-0.022793 -0.050976 0.050774 0.362998 -6.270278 -0.165159 
-0.005448 -0.049793 0.011089 0.276682 -6.261405 0.352346 
-0.006596 -0.049766 0.011907 0.266401 -6.263660 0.192866 
-0.011353 -0.049981 0.012708 0.263022 -6.277388 0.031402 
-0.016475 -0.050202 0.031000 0.351888 -6.271358 -0.136031 
-0.007820 -0.049879 0.013572 0.284948 -6.272547 0.009898 
0.004315 -0.048792 0.042725 1.881360 -5.986362 -0.077643 
-0.009836 -0.049933 0.014220 0.214576 -6.278601 0.063259 
-0.021292 -0.050935 0.052896 0.358309 -6.272206 -0.087460 
0.000268 -0.049501 0.000032 1.079892 -5.962455 -1.281903 
-0.002348 -0.049853 0.000123 0.459747 -6.212011 -0.112975 
-0.002977 -0.049796 -0.000918 0.902898 -5.715887 -2.010251 
-0.000480 -0.049193 -0.001111 1.170329 -5.115408 -3.270993 
-0.012924 -0.050023 0.029631 0.156844 -6.280001 0.021092 
-0.014610 -0.050097 0.031851 0.326950 -6.264262 -0.238835 
0.000104 -0.049643 0.004756 0.814235 -6.219240 -0.211153 
-0.000783 -0.049801 0.002169 0.598421 -6.207578 -0.284214 
0.001605 -0.049391 0.003632 1.347641 -6.128743 -0.017288 
-0.017932 -0.050678 0.049338 0.339368 -6.272622 -0.130585 
-0.018652 -0.050785 0.052390 0.345141 -6.272668 -0.105935 
0.002552 -0.049149 0.002224 1.743121 -6.021486 -0.117891 
0.004446 -0.048533 0.003296 2.410648 -5.773936 -0.150144 
-0.003525 -0.049772 0.006452 0.007945 -6.272879 0.207675 
-0.002620 -0.049758 0.008329 0.166626 -6.276131 0.085392 
-0.016413 -0.050652 0.052033 0.348988 -6.272575 -0.105273 
-0.016364 -0.050487 0.043363 0.310669 -6.274550 -0.105010 
-0.014955 -0.050445 0.045991 0.311994 -6.274337 -0.103728 
-0.018113 -0.050595 0.044148 0.349241 -6.272412 -0.111334 
-0.030327 -0.051088 0.030980 0.477461 -6.261068 -0.193725 
0.001014 -0.049387 0.006819 1.026925 -6.169644 0.402220 
0.002891 -0.049147 0.005372 1.764799 -5.979212 0.056288 
0.002365 -0.049206 0.007055 1.358215 -6.107954 0.073304 
0.005193 -0.048212 0.006564 2.447629 -5.778946 0.084015 
0.003909 -0.048738 0.008474 2.113848 -5.906366 -0.040936 
-0.030960 -0.051170 0.032976 0.426915 -6.267572 -0.018548 
-0.028397 -0.050954 0.032039 0.429528 -6.267744 -0.068244 
-0.013328 -0.050348 0.043752 0.331183 -6.273840 -0.074484 
-0.002887 -0.049654 0.011280 0.163228 -6.274392 0.166975 
-0.025061 -0.050785 0.031138 0.434233 -6.257648 -0.115358 
-0.014140 -0.050191 0.033406 0.323944 -6.266458 -0.211613 
-0.004020 -0.049725 0.013684 0.225352 -6.272930 0.106999 
-0.005275 -0.049744 0.014580 0.272911 -6.272707 0.134555 
-0.025818 -0.050787 0.032304 0.356343 -6.269604 0.037600 
-0.028076 -0.050949 0.033879 0.412816 -6.267684 -0.118723 
-0.006185 -0.049703 0.015894 0.081642 -6.271091 0.113382 
-0.017951 -0.050610 0.046459 0.374976 -6.270411 -0.113747 
-0.008741 -0.049832 0.016550 0.308743 -6.274149 0.020718 
-0.000844 -0.049598 0.011853 0.396332 -6.257136 0.306581 
-0.000603 -0.049718 0.010592 0.576983 -6.198175 0.289359 
-0.002241 -0.049625 0.014982 0.248606 -6.275739 0.079766 
-0.025464 -0.050836 0.035059 0.401564 -6.268990 -0.110215 
-0.004062 -0.049592 0.015581 0.274364 -6.232873 -0.052809 
-0.004883 -0.049752 0.017435 0.048526 -6.266408 0.039925 
0.002769 -0.049026 0.013510 1.599562 -6.069311 0.045011 
0.001952 -0.049250 0.011841 1.264625 -6.143827 0.113391 
0.003804 -0.048752 0.011508 1.990910 -5.950333 0.068682 
-0.024791 -0.050807 0.037087 0.398391 -6.269100 -0.108055 
-0.015695 -0.050566 0.049364 0.341362 -6.272411 -0.131036 
-0.003572 -0.049684 0.016725 0.183957 -6.270150 -0.146723 
-0.023232 -0.050652 0.032061 0.382784 -6.269236 -0.116102 
0.005375 -0.048173 0.012928 2.530687 -5.724857 -0.049985 
-0.022271 -0.050594 0.033814 0.358192 -6.271519 -0.035601 
0.003644 -0.048795 0.015995 1.809209 -6.008965 -0.034388 
0.001043 -0.049407 0.015955 0.873886 -6.203123 -0.023575 
0.001747 -0.049317 0.017499 1.190698 -6.142788 -0.021860 
-0.007121 -0.049766 0.018826 0.290903 -6.275760 -0.005478 
-0.011052 -0.050252 0.045917 0.332027 -6.272307 -0.155716 
-0.005766 -0.049683 0.018487 0.113445 -6.270646 -0.031992 
-0.024183 -0.050817 0.009423 0.467756 -6.238373 0.166500 
-0.024639 -0.050601 0.011856 0.316324 -6.259432 0.321535 
-0.004343 -0.049673 0.019683 0.206939 -6.279319 0.004258 
-0.023194 -0.050601 0.010933 0.400621 -6.258528 0.350677 
-0.022787 -0.050508 0.013521 0.292199 -6.270860 0.207757 
-0.021282 -0.050447 0.011972 0.330887 -6.269964 0.202502 
-0.023448 -0.050475 0.015008 0.404791 -6.260142 -0.058718 
-0.019231 -0.050469 0.035894 0.307997 -6.273873 -0.119476 
-0.021784 -0.050655 0.037634 0.376799 -6.269588 -0.154129 
0.000496 -0.049430 0.019104 0.543513 -6.258057 0.000108 
0.000605 -0.049437 0.021259 0.728644 -6.236307 -0.070955 
-0.001670 -0.049593 0.020873 0.283814 -6.275108 -0.069575 
-0.020632 -0.050458 0.010926 0.149677 -6.272143 0.268414 
-0.013405 -0.050445 0.049977 0.319855 -6.274221 -0.090732 
-0.011453 -0.050352 0.048250 0.323628 -6.272424 -0.093515 
-0.018895 -0.050328 0.014182 0.239566 -6.274876 0.129677 
-0.015888 -0.050281 0.035694 0.354377 -6.270443 -0.148173 
-0.010306 -0.049968 0.018536 0.336073 -6.269623 -0.008864 
-0.008276 -0.049787 0.019763 0.333510 -6.266625 0.032736 
-0.021463 -0.050380 0.014731 0.286714 -6.268357 -0.055730 
-0.008341 -0.050159 0.049308 0.359257 -6.272336 -0.069960 
-0.016947 -0.050425 0.037289 0.370293 -6.266705 -0.175830 
-0.011084 -0.049988 0.019699 0.236204 -6.277420 0.018611 
-0.027966 -0.050801 0.016768 0.372375 -6.264117 0.182466 
-0.008676 -0.049892 0.022288 0.302482 -6.269752 0.083404 
-0.026314 -0.050670 0.017439 0.342180 -6.261487 0.204707 
-0.005107 -0.049707 0.021561 0.230883 -6.278718 0.011839 
-0.013437 -0.050141 0.035657 0.346128 -6.272449 -0.058582 
-0.007554 -0.049776 0.023242 0.307486 -6.271150 0.184680 
-0.028125 -0.050782 0.019570 0.428638 -6.265039 0.020953 
-0.026299 -0.050700 0.019367 0.323068 -6.274175 -0.047647 
-0.026132 -0.050781 0.015899 0.368244 -6.255714 -0.004128 
-0.024688 -0.050713 0.016412 0.594512 -6.196208 0.154248 
-0.023634 -0.050508 0.017385 0.444818 -6.260384 0.080856 
-0.010975 -0.049967 0.021477 0.183127 -6.279627 0.097481 
-0.024271 -0.050600 0.019114 0.424460 -6.259883 0.069331 
-0.023324 -0.050795 0.040173 0.388510 -6.269257 -0.146371 
-0.021414 -0.050699 0.040510 0.319925 -6.273967 -0.109001 
-0.009599 -0.049844 0.024582 0.333932 -6.272117 0.031402 
-0.021797 -0.050416 0.017988 0.277958 -6.274118 0.147492 
-0.022606 -0.050450 0.020044 0.399503 -6.270016 0.001685 
-0.005111 -0.049693 0.023458 0.231462 -6.278252 0.079376 
-0.020183 -0.050511 0.037470 0.355175 -6.256205 -0.139838 
-0.020068 -0.050632 0.039441 0.317713 -6.270777 -0.143465 
-0.020456 -0.050336 0.019264 0.206782 -6.277570 0.073899 
-0.019914 -0.050348 0.017730 0.118206 -6.272868 0.245281 
-0.011279 -0.050338 0.049890 0.343674 -6.273507 -0.040570 
-0.007478 -0.049746 0.025456 0.268382 -6.276789 0.006874 
-0.018580 -0.050525 0.038182 0.270927 -6.272983 -0.148798 
-0.019198 -0.050320 0.019780 0.195447 -6.275847 0.122819 
-0.015984 -0.050174 0.015294 0.293309 -6.275634 -0.007819 
-0.016863 -0.050416 0.039365 0.342718 -6.272219 -0.081852 
-0.018614 -0.050263 0.015421 0.257093 -6.268343 -0.064260 
-0.012366 -0.050448 0.053730 0.337956 -6.273127 -0.107386 
-0.018249 -0.050352 0.017355 0.305711 -6.265618 0.022435 
-0.016656 -0.050218 0.017994 0.298660 -6.273987 0.108443 
-0.021309 -0.050472 0.016284 0.241480 -6.266942 -0.079030 
-0.003256 -0.049622 0.023333 0.186262 -6.279437 0.094153 
-0.019375 -0.050596 0.041204 0.356093 -6.272044 -0.100453 
-0.017645 -0.050197 0.019613 0.341671 -6.261599 0.028996 
-0.000579 -0.049596 0.022788 0.289485 -6.267252 -0.087833 
-0.014568 -0.050166 0.018142 0.217368 -6.268161 0.157045 
-0.013791 -0.050046 0.019529 0.280092 -6.269075 0.113647 
-0.015192 -0.050156 0.020515 0.295242 -6.270783 0.092244 
-0.015575 -0.050644 0.054631 0.352142 -6.272277 -0.112625 
-0.009769 -0.050295 0.052736 0.338098 -6.273190 -0.105139 
-0.002058 -0.049521 0.026020 0.052511 -6.277299 0.029706 
0.000096 -0.049586 0.024381 0.551649 -6.221919 0.008685 
-0.012984 -0.050026 0.021132 0.210146 -6.279098 0.057406 
-0.005922 -0.050030 0.048090 0.385783 -6.269884 -0.033001 
0.004638 -0.048469 0.020063 2.165094 -5.887776 -0.056292 
-0.011072 -0.050027 0.034177 0.234628 -6.277519 -0.094143 
0.005221 -0.048239 0.017227 2.389409 -5.803715 -0.020389 
0.002065 -0.049242 0.020047 1.282640 -6.129395 -0.018558 
-0.013616 -0.050072 0.014419 0.283839 -6.276584 0.043773 
-0.004639 -0.049940 0.049064 0.362058 -6.271116 -0.104535 
-0.010548 -0.050013 0.037216 0.193568 -6.276258 -0.117616 
-0.009635 -0.049999 0.034424 0.338199 -6.267378 -0.081271 
0.002746 -0.049095 0.022339 1.451479 -6.096162 -0.027922 
-0.013627 -0.050062 0.016059 0.315798 -6.273826 -0.063076 
0.005013 -0.048396 0.022840 2.255197 -5.846471 -0.071092 
-0.011632 -0.049986 0.015134 0.259117 -6.276639 0.100305 
-0.007842 -0.049881 0.035465 0.274454 -6.274218 -0.089701 
-0.007890 -0.049790 0.033425 0.318496 -6.256300 -0.143488 
-0.007885 -0.049866 0.036824 1.068100 -6.128017 -0.013094 
-0.006660 -0.049865 0.034433 0.211713 -6.262723 -0.112876 
-0.011589 -0.049941 0.016554 0.343228 -6.264548 -0.096708 
-0.000250 -0.049569 0.027114 0.423239 -6.245203 0.044892 
-0.003887 -0.049631 0.033733 0.280966 -6.274042 -0.097132 
0.003938 -0.048740 0.026091 1.835724 -6.002751 -0.007172 
-0.008541 -0.050054 0.037827 0.507444 -6.216587 -0.172980 
0.006803 -0.047583 0.023371 3.052901 -5.462057 -0.107374 
0.005589 -0.048134 0.025410 2.375929 -5.814282 -0.023776 
0.007802 -0.047005 0.025861 3.252307 -5.373346 -0.028545 
0.007383 -0.047170 0.023063 3.047826 -5.447466 -0.035113 
0.008247 -0.046813 0.024502 3.347522 -5.182496 0.258441 
0.007995 -0.046908 0.022310 3.127180 -5.422057 -0.034160 
0.009488 -0.045884 0.023213 4.061039 -4.756633 -0.088465 
-0.014692 -0.050383 0.041369 0.305397 -6.272626 -0.164608 
-0.027532 -0.050780 0.021730 0.399742 -6.270285 -0.018215 
-0.014211 -0.050276 0.039759 0.391422 -6.257245 -0.124397 
-0.000030 -0.049777 0.049838 0.498850 -6.253731 -0.118940 
-0.024914 -0.050618 0.022423 0.393830 -6.270748 -0.007497 
0.005493 -0.048230 0.028501 2.425209 -5.789699 -0.053247 
0.006932 -0.047552 0.026103 3.001576 -5.493995 0.009448 
-0.001113 -0.049856 0.051650 0.326748 -6.272718 -0.104132 
-0.008659 -0.049842 0.029327 0.355794 -6.272260 -0.078306 
-0.009223 -0.049841 0.026768 0.315990 -6.274584 -0.068622 
-0.006520 -0.049739 0.028166 0.296875 -6.275740 -0.054533 
0.001078 -0.049685 0.051377 0.835929 -6.218212 -0.119533 
-0.005973 -0.050093 0.052720 0.331050 -6.273479 -0.108331 
-0.010482 -0.049984 0.030383 0.268377 -6.274173 -0.011403 
-0.011992 -0.050038 0.028369 0.228525 -6.272924 -0.007125 
-0.009104 -0.049912 0.031814 0.366519 -6.271031 -0.035553 
-0.011650 -0.049987 0.032222 0.230092 -6.274923 -0.119145 
-0.006087 -0.050146 0.055456 0.336991 -6.272832 -0.127172 
-0.010534 -0.050415 0.056927 0.321114 -6.273744 -0.121298 
-0.005873 -0.049711 0.031669 0.302786 -6.274699 -0.067408 
-0.002215 -0.049900 0.054019 0.236010 -6.275978 -0.078959 
-0.000110 -0.049897 0.056109 0.478337 -6.255913 -0.104816 
-0.001881 -0.049991 0.058124 0.229951 -6.277249 -0.122970 
0.011166 -0.044359 0.029709 4.641760 -4.187430 -0.076470 
0.009281 -0.046070 0.031987 3.909677 -4.910205 -0.047741 
0.008950 -0.046387 0.028408 3.826640 -4.947945 -0.040900 
0.010994 -0.044586 0.032697 4.595940 -4.238866 -0.092954 
0.007462 -0.047448 0.038876 3.022399 -5.473821 -0.029568 
0.005138 -0.048427 0.034667 2.247939 -5.856109 -0.036933 
0.006893 -0.047633 0.035284 2.880233 -5.576638 -0.103751 
-0.004615 -0.049618 0.026402 0.268149 -6.276473 0.009041 
0.008482 -0.046714 0.035603 3.513120 -5.194685 -0.131263 
0.008199 -0.046866 0.033438 3.312180 -5.325770 -0.103104 
0.004010 -0.048937 0.046425 1.834398 -6.001698 -0.090746 
-0.003666 -0.049614 0.030000 0.210999 -6.279195 -0.018884 
0.005436 -0.048355 0.040292 2.392053 -5.806734 -0.061931 
-0.001088 -0.049581 0.029370 0.221472 -6.274082 -0.014154 
0.005798 -0.048256 0.043959 2.469173 -5.767576 -0.094862 
0.006963 -0.047678 0.041469 3.093981 -5.439779 -0.011902 
0.009369 -0.046214 0.041442 3.687321 -5.059847 -0.080293 
0.008180 -0.047062 0.043136 3.038237 -5.425776 -0.048955 
0.007682 -0.047157 0.041279 3.308570 -5.300621 0.013423 
0.009605 -0.045948 0.037065 3.924407 -4.882574 -0.126202 
0.000734 -0.049405 0.029359 0.876006 -6.219048 -0.076084 
0.002052 -0.049198 0.027039 1.224891 -6.159246 0.034221 
-0.001273 -0.049531 0.031872 0.065034 -6.279514 -0.000513 
0.000284 -0.049550 0.030957 0.632761 -6.215017 -0.107819 
0.007518 -0.047348 0.043245 2.851645 -5.590961 -0.107032 
0.007282 -0.047581 0.044850 3.032768 -5.477425 -0.145246 
0.003302 -0.048996 0.030585 1.410395 -6.110572 -0.046162 
0.004302 -0.048686 0.028776 1.901282 -5.975312 -0.126586 
0.004347 -0.048706 0.032356 1.969114 -5.946900 -0.025735 
0.006949 -0.047769 0.046974 2.865813 -5.580434 -0.064845 
0.005363 -0.048484 0.048199 2.290067 -5.846430 -0.094383 
0.006785 -0.047681 0.032600 2.972592 -5.503559 -0.067618 
0.008323 -0.046917 0.044703 3.358633 -5.308050 -0.077082 
0.009599 -0.046061 0.044211 3.844588 -4.951875 -0.100854 
0.009480 -0.046241 0.047087 3.748764 -5.018030 -0.018517 
0.011136 -0.044791 0.046050 4.719392 -4.028222 -0.145756 
0.011339 -0.044459 0.043665 4.838407 -3.919727 -0.060952 
0.012053 -0.043246 0.045263 5.254395 -3.429001 -0.063579 
0.006775 -0.047636 0.029155 3.105524 -5.431069 -0.045472 
0.011955 -0.043485 0.046945 5.276954 -3.404008 -0.108467 
0.012848 -0.042192 0.046434 5.016631 -3.776941 -0.008485 
0.012815 -0.042111 0.043453 5.015820 -3.755762 -0.042693 
0.013272 -0.041691 0.045966 5.284081 -3.198791 -0.001468 
0.012417 -0.042831 0.048697 5.220154 -3.487068 0.061484 
0.013277 -0.041550 0.048249 5.470651 -2.988163 0.065721 
0.003716 -0.049087 0.049587 1.795497 -6.011209 -0.120411 
0.002984 -0.049335 0.051631 1.557340 -6.071548 -0.095793 
-0.000573 -0.049558 0.034083 0.236274 -6.277648 -0.047260 
0.000990 -0.049465 0.034920 0.811319 -6.218810 -0.040221 
0.002145 -0.049225 0.032729 1.254431 -6.154984 -0.060738 
0.005431 -0.048518 0.052365 2.364856 -5.810735 -0.084396 
0.000994 -0.049746 0.053557 0.853901 -6.211842 -0.117952 
0.003466 -0.049254 0.054711 1.689515 -6.037279 -0.130461 
0.001309 -0.049723 0.055580 0.986377 -6.198400 -0.053472 
0.005587 -0.048544 0.056440 2.520776 -5.743980 -0.139409 
0.002423 -0.049551 0.057161 1.251710 -6.145016 -0.208526 
-0.034241 -0.051358 0.033155 0.389583 -6.270965 -0.005345 
0.007038 -0.047811 0.054654 2.911967 -5.560108 -0.033132 
-0.032446 -0.051230 0.034625 0.347961 -6.271716 -0.029149 
0.004923 -0.048894 0.058357 2.208910 -5.861082 -0.316340 
0.007101 -0.047792 0.057564 2.831161 -5.592572 -0.354282 
0.006895 -0.047859 0.049678 2.990053 -5.489241 -0.037243 
-0.035159 -0.051508 0.036277 0.149061 -6.221360 -0.259455 
0.007108 -0.047699 0.052040 2.884814 -5.580026 -0.073679 
0.012819 -0.042139 0.049918 5.037631 -3.716477 0.035915 
0.012131 -0.043198 0.051158 5.284828 -3.382320 -0.055071 
0.012733 -0.042478 0.053401 5.359478 -3.245755 -0.269630 
0.013905 -0.040038 0.057647 5.869499 -2.230723 -0.169819 
0.013582 -0.040954 0.055188 5.750689 -2.480754 -0.040681 
0.014489 -0.038336 0.057196 5.953910 -1.985863 -0.226866 
-0.020960 -0.050705 -0.001511 -0.086774 -6.141173 -0.751443 
-0.016612 -0.050599 -0.000399 0.123530 -6.209818 0.738153 
0.007446 -0.047132 0.027922 2.842266 -5.486217 0.020969 
0.008077 -0.046929 0.030851 3.013510 -5.477663 -0.013115 
0.008114 -0.046931 0.027738 2.731830 -5.552157 -0.153355 
0.007495 -0.047199 0.031734 3.062008 -5.466910 -0.062316 
-0.017697 -0.050285 0.001143 0.212204 -6.194394 0.386464 
-0.012226 -0.050333 0.000290 0.758719 -6.110606 0.867908 
-0.006955 -0.049229 -0.002560 -0.207082 -3.862808 -4.624712 
-0.004847 -0.049349 -0.002391 1.157943 -3.737411 -4.335096 
-0.005676 -0.050117 -0.000637 0.102100 -6.110117 -0.267485 
-0.011813 -0.050325 -0.000950 0.977169 -6.093910 -0.589455 
-0.011522 -0.049959 0.001383 1.093797 -6.056211 -0.094017 
-0.009378 -0.049570 0.002231 0.349337 -5.487429 -1.847742 
-0.006648 -0.049831 0.001482 -0.204021 -6.217837 -0.228472 
-0.004377 -0.049669 0.001519 0.160368 -6.087507 -0.314594 
-0.003344 -0.049914 0.002410 0.140197 -6.196176 -0.617754 
-0.020016 -0.050584 0.009181 0.237635 -6.255459 0.076688 
-0.019803 -0.050465 0.007726 0.375972 -6.206372 0.315424 
-0.021413 -0.050452 0.002219 -0.838279 -6.053535 -1.186756 
-0.019838 -0.050442 0.002253 0.154197 -5.672073 -1.937410 
-0.019218 -0.050685 0.006397 0.495251 -6.199163 0.657010 
-0.010868 -0.049973 0.007290 0.331453 -6.212152 0.293244 
-0.013146 -0.050185 0.007701 0.390759 -6.265209 0.162807 
-0.011930 -0.049950 0.026702 0.570493 -6.233302 -0.204222 
0.010884 -0.044801 0.035054 4.536071 -4.261111 -0.083485 
-0.001409 -0.049771 0.001465 0.383771 -6.252984 -0.360433 
0.000798 -0.049573 0.001902 1.118350 -6.147482 -0.246738 
0.003200 -0.048870 0.000472 2.037964 -5.728834 -1.086938 
-0.002711 -0.049791 0.005065 0.156102 -6.273695 0.035172 
-0.001200 -0.049872 0.005713 0.361565 -6.165645 -0.161972 
-0.002029 -0.049576 0.017790 0.351693 -6.272947 0.029799 
0.000389 -0.049677 0.005774 1.027901 -6.118036 0.291543 
-0.000293 -0.049605 0.006714 0.842692 -6.183087 0.626354 
0.010982 -0.044817 0.041026 4.636776 -4.161098 -0.096161 
0.011298 -0.044327 0.037802 4.836215 -3.962763 -0.100082 
-0.000244 -0.049561 0.008809 0.942228 -6.197036 -0.254577 
-0.001056 -0.049841 0.009595 0.174218 -5.922557 0.181834 
0.012215 -0.042994 0.038764 5.115394 -3.644217 -0.083172 
0.002518 -0.049158 0.010036 1.442139 -6.099191 0.026708 
0.012389 -0.042704 0.040665 5.027623 -3.744551 0.044449 
0.005883 -0.047909 0.009861 2.876021 -5.561247 -0.045880 
0.000546 -0.049470 0.014195 0.760963 -6.224062 0.026062 
0.006918 -0.047420 0.016424 3.201172 -5.380495 -0.167489 
0.006978 -0.047454 0.018878 2.957358 -5.518503 -0.055769 
0.007907 -0.046737 0.016366 3.404246 -5.276305 -0.120984 
0.008632 -0.046820 0.048188 3.380714 -5.276414 -0.009109 
0.007744 -0.047286 0.049104 3.144976 -5.426997 -0.041324 
0.011196 -0.044821 0.048565 4.688615 -4.011228 -0.042902 
0.005996 -0.047904 0.014407 2.901580 -5.551490 -0.093429 
0.007057 -0.047395 0.020924 2.871778 -5.581868 -0.072322 
0.008214 -0.046683 0.018921 3.517178 -5.190980 -0.213387 
-0.024979 -0.050598 0.014835 0.507663 -6.250924 -0.253945 
0.002438 -0.049150 0.025306 1.368539 -6.125061 0.063545 
0.007639 -0.047427 0.055357 3.034273 -5.479957 0.044192 
0.008784 -0.046786 0.051056 3.480286 -5.189241 -0.093229 
0.011306 -0.044703 0.050993 4.740857 -3.895968 0.200477 
0.008265 -0.047152 0.054203 3.255893 -5.349893 -0.054996 
0.009496 -0.046240 0.054701 4.007030 -4.830249 -0.049552 
0.011211 -0.044618 0.052728 4.784286 -4.032787 -0.127593 
0.010066 -0.045873 0.053554 4.093783 -4.679433 0.019228 
0.011389 -0.044499 0.049483 5.513659 -3.011204 -0.103066 
0.013266 -0.041654 0.050135 5.182152 -3.281155 0.038006 
0.009074 -0.046736 0.056541 3.677046 -4.998324 -0.138958 
0.011584 -0.044310 0.054373 4.839251 -3.927103 -0.139638 
0.009438 -0.046408 0.057443 4.057830 -4.783019 -0.147281 
0.008151 -0.047333 0.058307 3.116940 -5.430827 -0.161412 
0.012872 -0.041978 0.052569 5.383029 -2.875843 -0.327692 
0.013465 -0.041217 0.052841 5.573075 -2.766161 -0.120691 
0.013888 -0.039924 0.049740 5.913353 -2.122163 0.030200 
0.010739 -0.045195 0.057505 4.497609 -4.374507 -0.166514 
0.011643 -0.044171 0.056169 4.918126 -3.905212 0.091234 
0.010926 -0.045140 0.059433 4.739963 -4.059984 -0.020232 
0.011840 -0.043945 0.058808 4.952614 -3.857492 -0.001750 
0.012619 -0.042828 0.057236 5.320837 -3.318383 -0.072615 
0.013200 -0.041779 0.057742 5.633126 -2.762782 -0.093489 
-0.027815 -0.023713 0.000122 -0.051561 -0.111810 -6.281872 
-0.030843 -0.021884 0.000099 -0.016484 -0.171092 -6.280617 
