0.024301 0.018996 -0.012344 0.987823 -0.128900 0.087126 
0.024278 0.018153 -0.014163 0.999234 -0.038616 0.006323 
0.024188 0.016933 -0.013680 0.995334 -0.057786 0.077271 
0.024110 0.018583 -0.010664 0.995646 -0.071431 0.059890 
0.024008 0.016402 -0.012128 0.995677 -0.061237 0.069836 
-0.021544 0.002675 -0.017009 -0.012909 -0.999886 0.007867 
-0.024033 0.002701 -0.019343 -0.002812 -0.999926 -0.011822 
-0.021406 0.002793 -0.020396 -0.004989 -0.998663 -0.051460 
-0.024186 0.003302 -0.024623 0.004200 -0.928904 -0.370297 
-0.024199 0.003701 -0.025413 0.019315 -0.753668 -0.656971 
-0.023308 0.003561 -0.025008 -0.006119 -0.908695 -0.417415 
-0.019974 0.003060 -0.023602 -0.018016 -0.984004 -0.177231 
-0.020814 0.002938 -0.022295 -0.014955 -0.994348 -0.105108 
-0.022689 0.003075 -0.023452 0.012699 -0.988175 -0.152804 
-0.022203 0.003340 -0.024655 -0.013671 -0.954926 -0.296528 
-0.023718 0.002859 -0.021991 0.015153 -0.994791 -0.100803 
-0.024610 0.002819 -0.014623 -0.037515 -0.999075 0.021037 
-0.025972 0.002751 -0.017413 -0.075568 -0.996465 0.036714 
-0.025034 0.003043 -0.023588 -0.001101 -0.988869 -0.148788 
-0.025603 0.003301 -0.024737 0.040484 -0.940483 -0.337422 
-0.023608 0.002754 -0.020661 0.015485 -0.998218 -0.057628 
-0.021628 0.004085 -0.025766 -0.274180 0.401883 -0.873679 
-0.020809 0.004155 -0.026793 -0.209938 0.945717 0.248086 
-0.020871 0.003964 -0.026840 -0.443664 -0.795486 -0.412752 
-0.025214 0.002759 -0.020829 -0.023910 -0.998485 -0.049558 
-0.025989 0.002859 -0.022080 -0.084292 -0.991106 -0.102979 
-0.023662 0.003135 -0.024126 0.020908 -0.976065 -0.216472 
-0.020880 0.004445 -0.027619 -0.960388 -0.079957 -0.266948 
-0.020065 0.004238 -0.027743 -0.098239 -0.837205 -0.537994 
-0.020491 0.004563 -0.028119 -0.475155 -0.486847 -0.732944 
-0.022725 0.003664 -0.025432 -0.055912 -0.824986 -0.562381 
-0.023725 0.008313 -0.025472 0.061311 0.049951 -0.996868 
-0.022254 0.007028 -0.025448 0.013729 0.061324 -0.998024 
-0.023485 0.005823 -0.025543 0.063950 0.060045 -0.996145 
-0.025272 0.004508 -0.025810 0.011279 -0.019529 -0.999746 
-0.025666 0.003745 -0.025632 0.029022 -0.611118 -0.791007 
-0.026241 0.004561 -0.025867 0.034541 -0.023717 -0.999122 
-0.024811 0.004010 -0.025787 0.108496 -0.319319 -0.941416 
-0.024226 0.004568 -0.025745 0.067593 -0.007704 -0.997683 
-0.025517 0.006163 -0.025706 0.051798 0.068722 -0.996290 
-0.022938 0.004660 -0.025619 0.019959 0.125575 -0.991883 
-0.020872 0.009919 -0.025210 -0.004080 0.051254 -0.998677 
-0.023122 0.004013 -0.025728 -0.045626 -0.254681 -0.965948 
-0.019721 0.003568 -0.026156 -0.051250 -0.963972 -0.261019 
-0.021126 0.003642 -0.025809 -0.159780 -0.924480 -0.346132 
-0.020272 0.003827 -0.026737 -0.097886 -0.929615 -0.355296 
-0.019428 0.003362 -0.025043 -0.015512 -0.980384 -0.196488 
-0.022050 0.005350 -0.025555 -0.035006 0.095187 -0.994844 
-0.018624 0.013123 -0.025242 -0.085244 0.050158 -0.995097 
-0.018318 0.010173 -0.025336 -0.069506 0.031135 -0.997096 
-0.020793 0.003905 -0.025991 -0.262273 0.863208 -0.431376 
-0.020907 0.004799 -0.025717 -0.121105 0.157586 -0.980051 
-0.020206 0.004320 -0.025887 -0.387686 0.536632 -0.749484 
-0.018238 0.007868 -0.025484 -0.019270 0.086441 -0.996071 
-0.019157 0.006527 -0.025656 -0.047797 0.159729 -0.986003 
-0.020587 0.006551 -0.025535 -0.061381 0.112111 -0.991798 
-0.018069 0.006202 -0.025714 0.011433 0.169229 -0.985511 
-0.020183 0.004193 -0.026626 -0.377416 0.901884 0.210148 
-0.020186 0.004732 -0.027516 -0.221851 0.850070 0.477665 
-0.018390 0.005361 -0.025913 0.024751 0.368179 -0.929425 
-0.019100 0.004903 -0.026251 -0.063343 0.769067 -0.636021 
-0.019564 0.005397 -0.025820 -0.148778 0.285212 -0.946847 
-0.018700 0.004655 -0.026654 0.166099 0.954327 -0.248337 
-0.019530 0.004611 -0.026856 -0.287711 0.951328 0.110438 
-0.019660 0.004528 -0.026231 -0.545247 0.717582 -0.433338 
-0.019156 0.004817 -0.027490 0.160400 0.976586 0.143357 
-0.019465 0.004734 -0.028177 0.290838 0.113333 -0.950036 
-0.019775 0.005231 -0.027932 0.064145 0.995204 0.073851 
-0.020206 0.004951 -0.028393 -0.096014 0.377780 -0.920904 
-0.020645 0.005078 -0.027925 -0.560690 0.826388 0.052063 
-0.021233 0.004152 -0.025795 -0.197063 0.263347 -0.944359 
-0.007766 0.057804 0.009584 -0.062591 0.995442 0.071949 
-0.007814 0.057836 0.008912 -0.085293 0.996156 0.019947 
-0.008766 0.057680 0.009481 -0.128451 0.988739 0.076785 
-0.010881 0.057291 0.011128 0.066352 0.981573 0.179199 
-0.012293 0.057350 0.010688 -0.154391 0.985719 0.067248 
-0.013161 0.057062 0.010925 -0.167340 0.981527 0.092743 
-0.013170 0.057329 0.009763 -0.138249 0.981600 0.131712 
-0.012428 0.057323 0.009836 -0.048569 0.997417 0.052912 
-0.012922 0.057409 0.008547 -0.063873 0.994861 0.078566 
-0.012329 0.057694 0.004967 -0.098357 0.994536 0.034989 
-0.010389 0.057800 0.005376 -0.073089 0.996205 0.047261 
-0.011972 0.057769 0.003175 -0.094647 0.995170 0.026061 
-0.015916 0.056979 0.012393 0.193102 0.980143 -0.045078 
-0.015938 0.057033 0.011733 0.096678 0.993713 0.056461 
-0.014590 0.057309 0.009509 0.034286 0.980733 0.192322 
-0.013783 0.057344 0.009082 -0.019427 0.991888 0.125618 
-0.014349 0.057418 0.008448 -0.028467 0.997905 0.058102 
-0.014085 0.056952 0.011869 -0.063873 0.997857 0.014203 
-0.014157 0.057009 0.010899 -0.026974 0.997874 0.059327 
-0.014902 0.056998 0.011340 0.056189 0.995568 0.075411 
-0.019730 0.057229 0.001767 -0.008807 0.971496 0.236891 
-0.017676 0.057200 0.002158 -0.052319 0.970262 0.236336 
-0.017235 0.057601 0.000379 -0.003073 0.987049 0.160390 
-0.015399 0.057224 0.003644 -0.216432 0.973010 0.080060 
-0.016803 0.056995 0.003259 -0.131828 0.968350 0.211945 
-0.016917 0.056618 0.005004 -0.245365 0.963017 0.111328 
-0.008342 0.057825 0.007667 -0.064939 0.996532 0.052023 
-0.010801 0.057543 0.008542 -0.075059 0.994266 0.076160 
-0.015069 0.057304 0.007844 -0.212233 0.976420 -0.039525 
-0.013942 0.057518 0.007096 -0.096823 0.995135 0.018238 
-0.015280 0.057180 0.006653 -0.280197 0.958931 -0.044048 
-0.012351 0.057595 0.006604 -0.060223 0.996402 0.059627 
-0.011883 0.057436 0.009338 -0.067851 0.994210 0.083328 
-0.011471 0.057356 0.010357 -0.025118 0.998794 0.042179 
-0.011806 0.057426 0.011045 -0.065350 0.995845 0.063414 
-0.014187 0.057524 0.001569 -0.068896 0.996806 0.040380 
-0.015117 0.057393 0.002216 -0.115983 0.988815 0.093773 
-0.013773 0.057516 0.002628 -0.136366 0.990467 0.019505 
-0.014334 0.057429 0.005314 -0.196739 0.980450 0.003385 
-0.013398 0.057547 0.004192 -0.125311 0.991980 0.016523 
-0.014432 0.057450 0.004099 -0.198545 0.979982 0.014693 
-0.014726 0.057535 0.000542 -0.007600 0.998098 0.061184 
-0.016178 0.057386 0.001686 -0.043456 0.983375 0.176308 
-0.015449 0.057085 0.005113 -0.301718 0.953055 0.025548 
-0.013308 0.057532 0.005592 -0.102459 0.994703 0.008223 
-0.013887 0.057086 0.010030 -0.069473 0.977632 0.198519 
-0.016323 0.056993 0.008104 -0.244256 0.961207 -0.128142 
-0.015465 0.057284 0.009200 -0.109826 0.993694 -0.022592 
-0.014725 0.057028 0.010399 0.088650 0.981762 0.168181 
-0.016877 0.056614 0.006454 -0.306168 0.949715 -0.065599 
-0.012753 0.057318 0.010310 -0.158589 0.978975 0.128288 
-0.013791 0.057380 0.008055 -0.002581 0.991717 0.128418 
-0.013746 0.057339 0.008484 0.004008 0.999396 0.034517 
-0.015939 0.057271 0.010251 -0.032902 0.995394 0.090047 
-0.015222 0.057234 0.010001 0.096729 0.982790 0.157375 
-0.016949 0.057169 0.009960 -0.091849 0.992218 -0.084067 
-0.016425 0.057106 0.010963 0.014872 0.995564 0.092903 
-0.020808 0.057800 -0.000861 -0.007102 0.985176 0.171399 
-0.018822 0.056244 0.005016 -0.061520 0.974610 0.215293 
-0.018295 0.056180 0.006236 -0.199184 0.978064 0.060971 
-0.018629 0.056775 0.003394 -0.028145 0.959079 0.281735 
-0.017403 0.057913 -0.001855 0.039627 0.992056 0.119396 
-0.015553 0.057130 0.010798 0.096229 0.983348 0.154163 
-0.007300 0.057857 0.009264 0.032518 0.997087 0.068993 
-0.019923 0.058099 -0.002960 0.002764 0.994784 0.101968 
-0.026716 0.029442 -0.025433 -0.082481 -0.182671 -0.979708 
-0.029629 0.031346 -0.026110 -0.739395 -0.401040 -0.540798 
-0.029575 0.031009 -0.025774 -0.745434 -0.533016 -0.400277 
-0.029910 0.031633 -0.025854 -0.780355 -0.424847 -0.458859 
-0.027931 0.028832 -0.025178 -0.217358 -0.174869 -0.960300 
-0.028754 0.029390 -0.025182 -0.332090 -0.392854 -0.857544 
-0.028392 0.030152 -0.025488 -0.070654 -0.333556 -0.940079 
-0.029835 0.030910 -0.025164 -0.761205 -0.480890 -0.435098 
-0.029192 0.030349 -0.025514 -0.412856 -0.562209 -0.716568 
-0.029579 0.031936 -0.026455 -0.325348 -0.238338 -0.915065 
-0.029378 0.031082 -0.026173 -0.143265 -0.557224 -0.817910 
-0.028591 0.030829 -0.025812 0.051520 -0.463741 -0.884471 
-0.028205 0.030814 -0.025754 -0.004358 -0.417650 -0.908598 
-0.028952 0.031343 -0.026152 0.154284 -0.436712 -0.886273 
-0.028242 0.031549 -0.026131 0.098454 -0.367166 -0.924930 
-0.027540 0.030501 -0.025666 -0.032735 -0.317026 -0.947852 
-0.029550 0.033350 -0.026759 -0.134198 -0.164977 -0.977125 
-0.030376 0.032748 -0.026116 -0.751654 -0.297017 -0.588895 
-0.030437 0.031934 -0.025186 -0.825861 -0.409529 -0.387608 
-0.029717 0.029940 -0.024419 -0.763938 -0.322697 -0.558807 
-0.029268 0.029386 -0.024763 -0.714936 -0.318222 -0.622576 
-0.030968 0.032319 -0.024345 -0.907176 -0.344624 -0.241382 
-0.030735 0.031275 -0.023404 -0.928721 -0.314475 -0.196424 
-0.030330 0.031057 -0.024408 -0.835672 -0.412676 -0.362423 
-0.029075 0.028615 -0.024693 -0.542239 -0.119960 -0.831617 
-0.030942 0.031541 -0.022272 -0.960711 -0.264902 -0.082838 
-0.031179 0.032240 -0.021890 -0.961838 -0.267542 -0.057357 
-0.029536 0.028984 -0.024252 -0.704263 -0.147473 -0.694453 
-0.030563 0.029908 -0.022416 -0.974509 -0.119549 -0.189841 
-0.029453 0.027672 -0.024484 -0.455764 0.144094 -0.878360 
-0.029687 0.028349 -0.024176 -0.618644 0.185332 -0.763499 
-0.028692 0.027787 -0.024819 -0.388857 0.023541 -0.920997 
-0.030175 0.028779 -0.023615 -0.856470 0.105202 -0.505363 
-0.030257 0.030135 -0.023653 -0.899144 -0.239821 -0.366096 
-0.029065 0.026941 -0.024794 -0.325851 0.166878 -0.930576 
-0.030662 0.025696 -0.024495 -0.631887 0.274015 -0.725006 
-0.031017 0.025317 -0.024050 -0.969475 0.105329 -0.221415 
-0.030712 0.026544 -0.024045 -0.821643 0.270754 -0.501593 
-0.030610 0.027899 -0.022458 -0.984349 0.143332 -0.102535 
-0.030810 0.028220 -0.019970 -0.996111 -0.008753 -0.087675 
-0.030664 0.027473 -0.023562 -0.938497 0.260181 -0.227000 
-0.030216 0.027544 -0.024132 -0.591427 0.258551 -0.763784 
-0.029925 0.026471 -0.024539 -0.407176 0.273457 -0.871452 
-0.030841 0.026493 -0.021565 -0.995033 0.098421 -0.014937 
-0.027142 0.031737 -0.026097 0.097390 -0.257952 -0.961237 
-0.027953 0.032595 -0.026384 0.156213 -0.214076 -0.964245 
-0.027034 0.033068 -0.026332 0.199195 -0.112006 -0.973538 
-0.028184 0.033782 -0.026644 0.173817 -0.060329 -0.982928 
-0.029161 0.034386 -0.026785 0.066777 0.025539 -0.997441 
-0.028779 0.032413 -0.026533 0.137053 -0.236690 -0.961870 
-0.031022 0.024836 -0.021872 -0.997117 0.073338 0.019463 
-0.030932 0.026084 -0.023071 -0.990211 0.138679 -0.015793 
-0.031090 0.024179 -0.023337 -0.998849 0.034956 -0.032840 
-0.027041 0.034101 -0.026385 0.236583 -0.010441 -0.971555 
-0.025690 0.032000 -0.025965 0.110389 -0.114435 -0.987279 
-0.026275 0.030575 -0.025700 -0.014321 -0.218903 -0.975642 
-0.029891 0.034487 -0.026765 -0.140860 0.020695 -0.989813 
-0.026036 0.033781 -0.026092 0.215742 -0.013138 -0.976362 
-0.024659 0.033418 -0.025915 0.125417 -0.008819 -0.992065 
0.023863 0.011842 -0.010311 0.998745 0.015893 -0.047506 
0.024061 0.012086 -0.008902 0.975012 0.044656 -0.217617 
0.024015 0.010123 -0.009347 0.985012 0.051190 -0.164715 
0.024512 0.014287 -0.006869 0.997168 0.038327 -0.064707 
0.024411 0.013452 -0.005819 0.995305 0.005048 0.096657 
0.024535 0.012920 -0.006807 0.999637 0.026957 0.000199 
0.024371 0.014179 -0.007389 0.946810 0.043293 -0.318869 
0.024450 0.013574 -0.007354 0.960558 0.055690 -0.272446 
0.024340 0.018960 -0.007032 0.992957 -0.002937 -0.118437 
0.024397 0.018341 -0.006680 0.990530 0.033023 -0.133266 
0.024262 0.018365 -0.007127 0.939117 0.000455 -0.343597 
0.024476 0.015129 -0.006167 0.997796 0.009449 0.065683 
0.024040 0.018295 -0.007655 0.987626 -0.066738 -0.141922 
0.024065 0.017353 -0.008033 0.995459 0.034777 -0.088612 
0.024069 0.018647 -0.008985 0.996381 -0.079744 -0.029413 
0.024288 0.014941 -0.007649 0.960484 0.016884 -0.277824 
0.024582 0.011298 -0.007299 0.991699 0.037465 -0.122999 
0.024307 0.010748 -0.008145 0.952334 0.038612 -0.302604 
0.024430 0.012269 -0.007732 0.959126 0.059821 -0.276585 
0.024474 0.016046 -0.006858 0.995228 0.030476 -0.092693 
0.024414 0.016414 -0.005977 0.996044 0.022823 0.085882 
0.023936 0.016215 -0.010088 0.999215 -0.038363 -0.009900 
0.024451 0.017647 -0.006344 0.999704 0.006210 0.023532 
0.024261 0.017616 -0.005014 0.989457 0.022613 0.143049 
0.024286 0.019392 -0.007933 0.990080 -0.127989 -0.057973 
0.024270 0.019869 -0.007297 0.986157 0.129981 0.102950 
0.024235 0.014998 -0.004047 0.994168 0.020543 0.105872 
0.024130 0.016113 -0.007896 0.980973 0.055023 -0.186182 
0.024103 0.015488 -0.008419 0.989204 0.001781 -0.146537 
0.024053 0.016751 -0.008802 0.997030 0.004967 -0.076857 
0.024402 0.019145 -0.005799 0.996017 0.063985 0.062098 
0.024246 0.016530 -0.007437 0.952827 0.055511 -0.298395 
0.024186 0.017386 -0.007448 0.948031 0.066978 -0.311049 
0.024421 0.016928 -0.006926 0.985227 0.031227 -0.168385 
0.024329 0.017807 -0.007063 0.954870 0.048737 -0.292998 
0.024417 0.015531 -0.007168 0.977399 0.037229 -0.208100 
0.024016 0.018441 -0.003402 0.997152 0.037057 0.065682 
0.024124 0.019220 -0.004478 0.982713 0.077300 0.168226 
0.024333 0.020252 -0.007931 0.989526 0.083885 0.117481 
0.024249 0.021008 -0.008275 0.967967 0.200302 0.151390 
0.024124 0.020777 -0.007527 0.963364 0.197771 0.181151 
0.023894 0.013522 -0.011967 0.998092 -0.020161 0.058354 
0.024026 0.020590 -0.006691 0.979018 0.196749 0.053042 
0.024121 0.020407 -0.005774 0.967588 0.241209 -0.074775 
0.024235 0.019686 -0.006546 0.979830 0.199602 -0.009581 
0.023893 0.020208 -0.004076 0.979873 0.112174 0.165122 
0.024150 0.019860 -0.004816 0.960640 0.021730 0.276946 
0.023988 0.019742 -0.003633 0.993418 0.112531 0.021414 
0.024199 0.011346 -0.008491 0.961332 0.020863 -0.274602 
0.024357 0.020230 -0.008583 0.996855 -0.058553 -0.053406 
0.024058 0.008083 -0.010415 0.993934 0.075279 -0.080181 
0.023903 0.009755 -0.010857 0.997962 0.052830 -0.035798 
0.024016 0.021693 -0.007993 0.973967 0.188791 0.125483 
0.024093 0.021672 -0.008615 0.952210 0.280416 0.121093 
0.023967 0.022218 -0.008539 0.997566 0.027276 0.064180 
0.023858 0.020437 -0.003372 0.982438 0.174169 -0.066943 
0.024585 0.012050 -0.007027 0.999003 0.036714 -0.025416 
0.024269 0.020314 -0.009253 0.987965 -0.116823 -0.101378 
0.024265 0.020264 -0.005146 0.986285 0.150677 0.067362 
0.023865 0.021740 -0.007010 0.991531 0.101667 0.080812 
0.024011 0.015849 -0.009156 0.994447 -0.011137 -0.104649 
0.024007 0.019930 -0.002940 0.996788 0.079618 -0.008636 
0.023985 0.019629 -0.001747 0.999645 -0.004775 0.026203 
0.024127 0.019887 -0.009865 0.995274 -0.096232 0.013016 
0.024038 0.020665 -0.004455 0.963459 0.013040 0.267537 
0.024040 0.020958 -0.004869 0.985296 0.170275 -0.014069 
0.024103 0.013815 -0.008147 0.971708 0.035244 -0.233541 
0.023884 0.021359 -0.006028 0.992490 0.119797 -0.024745 
0.023887 0.010446 -0.012161 0.998608 0.016403 0.050137 
0.023943 0.013293 -0.009288 0.992240 0.010638 -0.123882 
0.023871 0.013829 -0.010124 0.999386 -0.017054 -0.030599 
0.023985 0.014847 -0.009239 0.993367 -0.021255 -0.113008 
0.024345 0.009309 -0.008263 0.953349 0.092966 -0.287200 
0.024185 0.008392 -0.009228 0.966587 0.114631 -0.229279 
-0.031091 0.029143 0.029629 0.972743 0.086090 0.215312 
-0.031163 0.029524 0.029769 0.307022 0.082367 0.948131 
-0.030980 0.028223 0.029463 0.943248 0.102777 0.315786 
-0.031427 0.025222 0.029592 -0.588822 -0.014370 0.808135 
-0.031291 0.027674 0.029799 -0.534367 -0.026060 0.844851 
-0.031213 0.032845 0.029505 0.614519 0.034807 0.788134 
-0.028270 0.036107 0.028686 0.080713 0.043594 0.995784 
-0.027919 0.033700 0.028569 0.053954 -0.132135 0.989762 
-0.026699 0.035697 0.028610 -0.018520 0.001461 0.999828 
-0.030793 0.029714 0.028388 0.781449 0.102194 0.615543 
-0.030611 0.030799 0.028311 0.460016 -0.160583 0.873269 
-0.030962 0.030372 0.028691 0.866749 0.005007 0.498720 
-0.030561 0.026547 0.029143 0.735479 0.033430 0.676722 
-0.030374 0.027274 0.028795 0.568635 0.178884 0.802904 
-0.030824 0.028072 0.029003 0.858077 0.165834 0.486008 
-0.031098 0.029376 0.029533 0.978056 0.081776 0.191623 
-0.031036 0.029649 0.029061 0.947308 0.097248 0.305205 
-0.022404 0.030145 0.028852 -0.177516 -0.055936 0.982527 
-0.018941 0.030203 0.029483 -0.169854 -0.040261 0.984646 
-0.020850 0.032393 0.029273 -0.156974 -0.039400 0.986817 
-0.017984 0.032266 0.029734 -0.130647 -0.002300 0.991426 
-0.019710 0.034221 0.029444 -0.128616 0.036541 0.991021 
-0.030857 0.024945 0.029480 0.895892 -0.035979 0.442812 
-0.030086 0.028397 0.028286 0.428414 0.331905 0.840417 
-0.030607 0.028556 0.028548 0.698604 0.233276 0.676414 
-0.029922 0.027629 0.028477 0.441314 0.206132 0.873357 
-0.027954 0.026146 0.028056 0.107666 0.017659 0.994030 
-0.028271 0.028030 0.027963 0.047008 0.060000 0.997091 
-0.029341 0.027931 0.028150 0.251065 0.171606 0.952637 
-0.030205 0.028963 0.028094 0.385662 0.223646 0.895124 
-0.030299 0.029784 0.027973 0.278288 -0.044042 0.959487 
-0.028935 0.032084 0.028297 0.106761 -0.221864 0.969215 
-0.029926 0.031794 0.028360 0.198650 -0.233323 0.951892 
-0.029304 0.031213 0.028149 0.110333 -0.192237 0.975126 
-0.030840 0.033862 0.029141 0.471662 -0.081173 0.878035 
-0.031129 0.032581 0.029190 0.881018 -0.109425 0.460255 
-0.029503 0.029195 0.027972 0.069458 0.061855 0.995665 
-0.028772 0.029544 0.027935 0.027650 -0.021752 0.999381 
-0.030956 0.026717 0.029711 0.636011 -0.027789 0.771180 
-0.025307 0.033800 0.028674 -0.114407 -0.065159 0.991295 
-0.024990 0.022262 0.027911 -0.109653 -0.078282 0.990883 
-0.026204 0.026339 0.028033 -0.094898 -0.036612 0.994814 
-0.029384 0.035034 0.028891 0.188501 -0.053397 0.980620 
-0.023838 0.024015 0.028222 -0.163677 -0.083648 0.982961 
-0.030770 0.025112 0.029190 0.804913 -0.064597 0.589866 
-0.030820 0.026670 0.029451 0.821287 0.005515 0.570489 
-0.031129 0.030071 0.029477 0.977965 0.084662 0.190834 
-0.029494 0.033351 0.028694 0.171549 -0.191135 0.966456 
-0.023521 0.027305 0.028540 -0.177175 -0.053350 0.982732 
-0.031217 0.031180 0.029342 0.984840 0.025806 0.171535 
-0.030155 0.034236 0.028953 0.238948 -0.098664 0.966007 
-0.029925 0.035883 0.029018 0.166069 0.055496 0.984551 
-0.031098 0.028145 0.029864 0.250924 -0.001453 0.968006 
-0.028584 0.030773 0.028007 0.016490 -0.124947 0.992026 
-0.028182 0.032023 0.028217 0.028750 -0.194896 0.980402 
-0.030346 0.033060 0.028859 0.301243 -0.213399 0.929362 
-0.031069 0.031395 0.028851 0.850711 -0.049329 0.523313 
-0.017911 0.034370 0.029671 -0.087630 0.073463 0.993441 
-0.016253 0.032986 0.029849 -0.015791 0.062474 0.997922 
-0.021423 0.024879 0.028745 -0.194095 -0.084657 0.977323 
-0.020633 0.027776 0.029076 -0.184724 -0.042647 0.981865 
-0.027214 0.031625 0.028155 -0.091946 -0.139994 0.985874 
-0.025345 0.030152 0.028284 -0.169545 -0.064303 0.983422 
-0.023342 0.032323 0.028884 -0.165413 -0.072839 0.983531 
-0.027502 0.029403 0.027929 -0.087467 -0.034975 0.995553 
-0.029640 0.030382 0.028041 0.101253 -0.136710 0.985423 
-0.029665 0.025569 0.028579 0.369949 -0.051242 0.927638 
-0.030134 0.026077 0.028792 0.472782 -0.018098 0.880993 
-0.030697 0.031989 0.028622 0.434334 -0.233044 0.870083 
-0.029061 0.026183 0.028296 0.325479 0.044940 0.944481 
-0.030875 0.032694 0.028981 0.541348 -0.191274 0.818753 
-0.022253 0.034414 0.029124 -0.130443 0.007105 0.991430 
-0.029881 0.026669 0.028622 0.435859 0.095146 0.894972 
-0.031622 0.055491 0.029376 -0.444421 -0.063377 0.893573 
-0.031736 0.056246 0.029351 -0.624528 0.287451 0.726180 
-0.032093 0.055752 0.028943 -0.909727 0.101919 0.402504 
-0.030625 0.055414 0.029435 -0.092114 -0.019153 0.995564 
-0.031133 0.056326 0.029575 -0.315421 0.205638 0.926403 
-0.030494 0.053062 0.030013 -0.274192 0.187469 0.943225 
-0.029387 0.052312 0.030411 -0.164603 0.116212 0.979490 
-0.029504 0.053601 0.030143 -0.177103 0.274200 0.945224 
-0.032290 0.056103 0.026583 -0.962055 0.267362 0.054470 
-0.032254 0.055896 0.027858 -0.953147 0.264248 0.147251 
-0.032192 0.056679 0.026625 -0.772081 0.633259 0.053611 
-0.030921 0.054128 0.029591 -0.180608 0.188618 0.965300 
-0.031466 0.052999 0.029665 -0.446745 0.106138 0.888343 
-0.031956 0.056388 0.028796 -0.850475 0.467660 0.240806 
-0.031622 0.054485 0.029497 -0.433494 0.157158 0.887347 
-0.032033 0.056785 0.024818 -0.625535 0.779912 -0.021053 
-0.032351 0.056125 0.025017 -0.938747 0.344117 -0.018371 
-0.032529 0.055516 0.026391 -0.960043 0.274481 0.054575 
-0.032074 0.056621 0.023068 -0.767272 0.641158 -0.014481 
-0.031833 0.056815 0.028048 -0.542376 0.828209 0.141059 
-0.030373 0.056506 0.029687 -0.170771 0.400080 0.900430 
-0.030605 0.051247 0.030174 -0.330043 0.028593 0.943533 
-0.028170 0.053284 0.030391 -0.045911 0.202028 0.978303 
-0.032757 0.054633 0.020328 -0.976615 0.214244 -0.017958 
-0.032985 0.053657 0.022691 -0.992265 0.124120 -0.002317 
-0.032660 0.054949 0.022108 -0.958778 0.284069 -0.007043 
-0.032382 0.054387 0.028602 -0.923964 0.057424 0.378145 
-0.030032 0.054417 0.029698 -0.169500 0.280489 0.944773 
-0.032603 0.054945 0.018042 -0.966285 0.255295 -0.033443 
-0.032576 0.055298 0.020435 -0.934831 0.354850 -0.013151 
-0.032335 0.055808 0.022188 -0.942097 0.334802 -0.018989 
-0.032688 0.055176 0.024221 -0.963937 0.265921 -0.010537 
-0.029117 0.057136 0.028048 -0.078423 0.987483 0.136845 
-0.029989 0.057092 0.027246 -0.148703 0.985096 0.086453 
-0.030792 0.056848 0.028117 -0.108285 0.987103 0.117905 
-0.032548 0.055027 0.027460 -0.970928 0.186065 0.150595 
-0.031011 0.052330 0.029918 -0.337426 0.105920 0.935374 
-0.032874 0.053730 0.018968 -0.993048 0.110602 -0.040287 
-0.031234 0.052013 0.029864 -0.361968 0.091618 0.927677 
-0.032003 0.053679 0.029298 -0.734239 0.034576 0.678010 
-0.031524 0.056947 0.025853 -0.211320 0.977005 0.028379 
-0.031496 0.056927 0.027176 -0.168377 0.984147 0.055705 
-0.030593 0.057044 0.026554 -0.132356 0.989669 0.055117 
-0.031359 0.057069 0.023341 -0.210818 0.977479 0.009527 
-0.031448 0.056715 0.029049 -0.277232 0.901717 0.331735 
-0.032084 0.052550 0.029096 -0.849628 -0.016212 0.527133 
-0.033049 0.051859 0.020071 -0.998749 0.006966 -0.049517 
-0.033156 0.051436 0.023326 -0.999785 0.020207 0.004559 
-0.033096 0.049972 0.021934 -0.997510 -0.052736 -0.046826 
-0.030943 0.056724 0.029116 -0.230286 0.947118 0.223464 
-0.030338 0.056798 0.029040 -0.075631 0.975226 0.207879 
-0.030770 0.056731 0.029528 -0.171643 0.851394 0.495649 
-0.032619 0.054310 0.027479 -0.984806 0.063546 0.161615 
-0.028879 0.054519 0.029872 -0.120243 0.347922 0.929781 
-0.032807 0.054329 0.026038 -0.991248 0.116393 0.062290 
-0.031654 0.051490 0.029750 -0.638785 -0.020411 0.769115 
-0.029843 0.056718 0.029775 -0.055062 0.650680 0.757353 
-0.029622 0.056221 0.029772 -0.013199 -0.123268 0.992286 
-0.032690 0.053964 0.015761 -0.992752 0.096736 -0.071319 
-0.032708 0.053071 0.027253 -0.981658 0.011210 0.190320 
-0.031517 0.049817 0.029653 -0.610582 -0.035376 0.791162 
-0.032854 0.052331 0.016902 -0.997427 0.005498 -0.071476 
-0.032088 0.050604 0.029002 -0.876848 -0.021433 0.480290 
-0.032408 0.051805 0.028174 -0.948114 -0.015971 0.317530 
-0.032781 0.050591 0.026936 -0.976563 0.014273 0.214757 
-0.033024 0.052341 0.025341 -0.994745 0.051591 0.088432 
-0.033070 0.048721 0.024112 -0.998000 -0.062661 0.008379 
-0.033065 0.050314 0.025317 -0.995670 -0.003494 0.092891 
-0.029360 0.055364 0.029502 -0.061373 0.040504 0.997293 
-0.027166 0.057138 0.028356 -0.014840 0.975683 0.218682 
-0.028643 0.056913 0.028994 -0.017556 0.959393 0.281524 
-0.027316 0.056863 0.029238 -0.025223 0.920774 0.389281 
-0.032617 0.052220 0.014533 -0.988324 -0.022765 -0.150655 
-0.032249 0.055932 0.019237 -0.946686 0.321575 -0.019374 
-0.029382 0.056727 0.029569 0.071660 0.788695 0.610594 
-0.029717 0.056832 0.029241 -0.107770 0.969355 0.220762 
-0.027833 0.056395 0.029785 -0.043812 0.212171 0.976250 
-0.027028 0.056069 0.029809 -0.038630 -0.119698 0.992059 
-0.026859 0.056686 0.029733 -0.039580 0.618973 0.784414 
-0.028763 0.056037 0.029694 -0.017974 -0.150356 0.988469 
-0.032127 0.056649 0.020826 -0.841615 0.539896 0.014018 
-0.031416 0.057096 0.021423 -0.286125 0.957565 0.034673 
-0.029205 0.050751 0.030582 -0.170433 0.089355 0.981309 
-0.027691 0.051201 0.030654 0.011056 0.091769 0.995719 
-0.028629 0.056674 0.029700 0.015902 0.615605 0.787894 
-0.027973 0.055434 0.029613 -0.015571 0.070581 0.997384 
-0.028847 0.057333 0.025931 -0.087644 0.995558 0.034391 
-0.026800 0.057343 0.027090 -0.021023 0.995245 0.095107 
-0.032885 0.049393 0.019721 -0.993901 -0.079483 -0.076446 
-0.032436 0.049721 0.028185 -0.937574 0.009669 0.347650 
-0.032811 0.050338 0.017634 -0.994510 -0.073867 -0.074118 
-0.031501 0.056992 0.024824 -0.200013 0.979187 0.034466 
-0.029222 0.057262 0.023953 -0.129316 0.990871 0.038108 
-0.030163 0.057164 0.023292 -0.141941 0.989281 0.034286 
-0.030644 0.057069 0.024821 -0.120875 0.992418 0.022275 
0.023997 0.020933 -0.001269 0.998402 -0.054880 -0.013482 
0.024048 0.021660 -0.000822 0.998614 0.043200 0.030074 
0.023993 0.021106 0.000093 0.999654 -0.021264 0.015494 
0.023980 0.022269 -0.003206 0.999970 0.001316 0.007686 
0.024031 0.022213 -0.002334 0.992288 0.123801 -0.006096 
0.024077 0.021633 -0.002122 0.997466 -0.059831 -0.038502 
0.023731 0.027057 0.003425 0.999879 0.002788 -0.015285 
0.023720 0.027356 -0.000494 0.999835 -0.005943 0.017169 
0.023745 0.030893 -0.000309 0.999613 0.002766 0.027684 
0.024008 0.021824 -0.004342 0.999305 -0.036477 -0.007660 
0.024065 0.022520 -0.004000 0.997909 -0.031289 0.056558 
0.023976 0.025488 -0.005864 0.997476 0.043601 0.056037 
0.023952 0.024364 -0.005505 0.994692 0.057945 0.085030 
0.024015 0.024850 -0.005985 0.979382 0.058446 0.193380 
0.024084 0.022827 -0.004734 0.998923 -0.026005 -0.038418 
0.024031 0.023342 -0.003910 0.996037 0.064039 0.061722 
0.024012 0.028989 -0.005945 0.995995 -0.004547 -0.089293 
0.024031 0.029961 -0.005378 0.999464 -0.025654 0.020322 
0.023935 0.028440 -0.004921 0.997057 -0.016855 0.074793 
0.023903 0.026398 -0.004926 0.999099 0.006588 0.041917 
0.023981 0.027751 -0.005975 0.998786 -0.017919 -0.045877 
0.024088 0.025097 -0.006415 0.984063 0.102800 -0.145093 
0.023935 0.025661 -0.006539 0.985178 0.064526 -0.158937 
0.023791 0.033209 -0.001718 0.998001 0.023960 0.058476 
0.023684 0.034682 0.000160 0.999635 0.023318 0.013624 
0.023780 0.020869 -0.003659 0.991937 -0.084240 0.094684 
0.023799 0.026882 -0.003105 0.998833 0.018705 0.044526 
0.023908 0.024520 -0.003130 0.998024 0.044002 0.044855 
0.023826 0.027731 -0.006861 0.994746 0.038027 -0.095048 
0.023965 0.026636 -0.006196 0.998037 0.023640 -0.057987 
0.023810 0.026415 -0.007174 0.996688 -0.000047 -0.081326 
0.023757 0.025273 -0.000458 0.998883 0.012738 0.045502 
0.023927 0.022253 -0.000701 0.976567 0.200757 0.077552 
0.023992 0.022249 -0.001631 0.990204 0.133998 0.039246 
0.023890 0.023090 -0.001549 0.993742 0.080812 0.077113 
0.023799 0.025395 -0.007023 0.986612 0.022794 -0.161487 
0.023916 0.024665 -0.006889 0.983823 0.115429 -0.136998 
0.024115 0.024328 -0.006219 0.996948 -0.039838 -0.067145 
0.024024 0.023862 -0.006059 0.922847 -0.323183 -0.209539 
0.023930 0.023783 -0.006307 0.956192 -0.274921 -0.100576 
0.023912 0.022501 -0.007842 0.992940 -0.049338 0.107872 
0.023849 0.022920 -0.007012 0.993099 -0.046022 0.107869 
0.024031 0.023705 -0.005740 0.992127 -0.110821 -0.058325 
0.023879 0.028405 -0.006374 0.971130 0.028971 -0.236787 
0.023784 0.028764 -0.006751 0.993287 0.035328 -0.110145 
0.023757 0.028925 -0.007554 0.996313 0.065728 -0.055145 
0.023752 0.030130 -0.006687 0.985942 0.022314 -0.165591 
0.023864 0.029192 -0.006372 0.960715 0.026685 -0.276250 
0.023923 0.029919 -0.006101 0.974106 0.025961 -0.224595 
0.024061 0.024473 -0.007729 0.987282 0.117820 0.106738 
0.023909 0.023910 -0.006890 0.993981 -0.099421 0.046014 
0.024068 0.023468 -0.007774 0.987806 -0.069036 0.139549 
0.023802 0.024980 -0.007325 0.973734 0.210799 0.086051 
0.023836 0.025501 -0.008020 0.989573 0.124247 0.072859 
0.024080 0.024812 -0.008669 0.987623 0.156830 0.002183 
0.023830 0.027681 -0.007817 0.998930 0.014555 -0.043902 
0.023731 0.027156 -0.009031 0.999307 0.036193 0.008667 
0.023989 0.021909 0.000285 0.975573 0.205798 0.076847 
0.023919 0.022877 -0.002571 0.997668 0.057573 0.036649 
0.023823 0.024269 -0.001277 0.997185 0.028487 0.069364 
0.023717 0.022782 -0.000164 0.987669 0.122808 0.097099 
0.023907 0.021346 -0.005252 0.989689 0.121251 -0.076250 
0.023665 0.024774 0.001438 0.999684 -0.019880 0.015407 
0.023652 0.032757 0.003611 0.999746 0.008527 0.020867 
0.024056 0.023525 -0.005259 0.998911 0.042929 -0.018271 
0.024001 0.021231 -0.004116 0.985366 -0.070286 0.155284 
0.023928 0.021495 -0.003345 0.990151 -0.139733 -0.008690 
0.023821 0.029552 -0.003452 0.997937 -0.033047 0.055039 
0.023806 0.022531 -0.006163 0.997947 0.017195 -0.061690 
0.023851 0.028393 -0.004097 0.997096 0.001975 0.076129 
0.023837 0.023386 -0.005992 0.970948 -0.137454 -0.195872 
0.023880 0.020821 -0.002620 0.995729 -0.010967 -0.091674 
0.023998 0.023718 -0.004784 0.995180 0.095540 0.022132 
0.023983 0.022975 -0.005520 0.974300 -0.091863 -0.205670 
0.023707 0.022309 0.001043 0.966825 0.232470 0.105865 
0.023954 0.026060 -0.006464 0.992950 0.010832 -0.118039 
0.024109 0.022902 -0.008612 0.991681 -0.109608 0.067491 
0.023894 0.031925 -0.003130 0.996060 -0.012932 0.087734 
0.023922 0.024696 -0.004720 0.999186 0.037639 0.014547 
0.023673 0.023457 0.000618 0.998356 -0.003072 0.057243 
0.023844 0.023352 -0.006461 0.996082 -0.085353 0.023138 
0.023929 0.022076 -0.005329 0.991980 -0.049803 -0.116170 
0.024091 0.031390 -0.004856 0.998195 -0.037385 0.047011 
0.023722 0.028489 -0.008784 0.998191 0.058240 -0.014899 
0.023633 0.030010 0.007111 0.998684 0.037531 0.034943 
0.023676 0.036305 0.002485 0.999975 0.006226 0.003496 
-0.019144 0.003913 -0.027086 -0.002347 -0.933024 -0.359806 
-0.017669 0.003866 -0.026747 0.062848 -0.931053 -0.359430 
-0.018404 0.003517 -0.026000 0.036481 -0.965200 -0.258956 
-0.017352 0.003420 -0.025069 0.045212 -0.976457 -0.210923 
-0.015550 0.003464 -0.024837 0.048238 -0.956954 -0.286204 
-0.016992 0.003141 -0.023991 0.007521 -0.965815 -0.259124 
-0.016547 0.003619 -0.025828 0.093270 -0.952400 -0.290234 
-0.013463 0.003604 -0.024963 0.053036 -0.882515 -0.467285 
-0.012190 0.003865 -0.025302 -0.061833 -0.918416 -0.390754 
-0.012466 0.003638 -0.024832 0.018018 -0.829496 -0.558222 
-0.012676 0.013208 -0.025411 0.466782 0.064606 -0.882009 
-0.012853 0.012691 -0.025585 0.431817 0.031572 -0.901408 
-0.013229 0.013237 -0.025650 0.117337 0.089437 -0.989057 
-0.013759 0.014535 -0.025457 0.055205 0.165169 -0.984719 
-0.013023 0.013938 -0.025553 0.255834 0.143018 -0.956083 
-0.013158 0.011826 -0.025690 0.234471 -0.015277 -0.972003 
-0.012458 0.012313 -0.025313 0.397994 0.023820 -0.917079 
-0.012346 0.011374 -0.025228 0.306878 0.068891 -0.949252 
-0.012638 0.004223 -0.025913 -0.301003 -0.687725 -0.660630 
-0.011564 0.003908 -0.026020 -0.227186 -0.938546 -0.259843 
-0.012573 0.013961 -0.025284 0.341005 0.058181 -0.938259 
-0.011927 0.013009 -0.025037 0.099754 0.010230 -0.994960 
-0.015221 0.011948 -0.025695 -0.104431 0.018871 -0.994353 
-0.016691 0.011431 -0.025496 -0.113278 0.008406 -0.993528 
-0.015776 0.013917 -0.025523 -0.086191 0.077380 -0.993269 
-0.015082 0.010118 -0.025650 -0.072934 -0.035126 -0.996718 
-0.014235 0.011388 -0.025757 -0.010720 -0.007484 -0.999915 
-0.013668 0.010408 -0.025709 0.063465 -0.026576 -0.997630 
-0.014742 0.015322 -0.025460 0.019819 0.117935 -0.992824 
-0.012665 0.010524 -0.025493 0.266809 0.068060 -0.961343 
-0.011538 0.004234 -0.026906 -0.353509 -0.756660 -0.549997 
-0.012520 0.003338 -0.024530 -0.008873 -0.758165 -0.652002 
-0.011573 0.013991 -0.025086 -0.097826 -0.045795 -0.994149 
-0.010456 0.012583 -0.025316 -0.190108 -0.035027 -0.981138 
-0.011366 0.003804 -0.025354 -0.181179 -0.937017 -0.298619 
-0.013030 0.014390 -0.025416 0.249103 0.231576 -0.940383 
-0.012396 0.004518 -0.026492 -0.676669 -0.385352 -0.627394 
-0.013005 0.009618 -0.025646 0.120129 0.034235 -0.992168 
-0.011409 0.010437 -0.025192 -0.047629 0.194208 -0.979804 
-0.012282 0.009760 -0.025482 0.133878 0.161315 -0.977780 
-0.011467 0.009298 -0.025577 -0.122577 0.306215 -0.944038 
-0.012613 0.008965 -0.025625 -0.002817 0.115721 -0.993278 
-0.011401 0.011735 -0.025068 -0.047508 0.034684 -0.998269 
-0.009651 0.009771 -0.025773 -0.175035 0.316710 -0.932233 
-0.011493 0.003429 -0.024640 -0.045481 -0.823396 -0.565641 
-0.014525 0.004173 -0.025963 0.134000 -0.202004 -0.970174 
-0.015342 0.004835 -0.025858 0.031517 0.202940 -0.978684 
-0.013574 0.004731 -0.025841 -0.065562 0.091946 -0.993603 
-0.013800 0.008909 -0.025639 -0.013727 -0.032413 -0.999380 
-0.013889 0.005825 -0.025556 0.002360 0.152215 -0.988345 
-0.015653 0.006489 -0.025584 0.020423 0.102514 -0.994522 
-0.015672 0.003962 -0.026171 0.399991 -0.253245 -0.880837 
-0.014239 0.012821 -0.025701 -0.011771 0.084218 -0.996378 
-0.013432 0.006870 -0.025577 -0.100346 -0.039724 -0.994159 
-0.013009 0.007958 -0.025667 -0.119709 0.030105 -0.992353 
-0.013945 0.016389 -0.025193 0.100703 0.171617 -0.980003 
-0.013016 0.015653 -0.025146 0.111450 0.145206 -0.983104 
-0.019042 0.004247 -0.027919 0.135721 -0.666808 -0.732767 
-0.016639 0.003808 -0.026458 0.159805 -0.917551 -0.364092 
-0.016485 0.003993 -0.026633 0.500198 0.058983 -0.863900 
-0.018395 0.004081 -0.027499 0.150521 -0.791134 -0.592833 
-0.017662 0.004156 -0.027387 0.371061 -0.400512 -0.837797 
-0.017123 0.003948 -0.026893 0.256238 -0.714753 -0.650746 
-0.017073 0.004204 -0.026864 0.457709 0.732720 -0.503611 
-0.011999 0.002858 -0.024092 -0.015084 -0.838750 -0.544308 
-0.013025 0.003017 -0.024025 -0.147154 -0.887378 -0.436927 
-0.012353 0.002590 -0.023389 -0.136895 -0.966530 -0.216979 
-0.013339 0.002738 -0.022924 -0.106970 -0.982423 -0.152978 
-0.012701 0.014784 -0.025259 0.178935 0.108574 -0.977852 
-0.013733 0.003935 -0.025744 0.110584 -0.627796 -0.770483 
-0.014817 0.003687 -0.025518 0.110653 -0.881337 -0.459349 
-0.011165 0.002871 -0.023919 0.007876 -0.825732 -0.564007 
-0.014501 0.003131 -0.023914 -0.021426 -0.935422 -0.352884 
-0.011288 0.002543 -0.023273 -0.052505 -0.972261 -0.227930 
-0.017390 0.002868 -0.022768 -0.028777 -0.987338 -0.155998 
-0.015210 0.002808 -0.022871 -0.024855 -0.979833 -0.198269 
-0.016655 0.009266 -0.025483 -0.069546 0.005149 -0.997565 
-0.015996 0.007816 -0.025521 -0.029065 0.006561 -0.999556 
-0.014485 0.007690 -0.025547 -0.031374 -0.019422 -0.999319 
-0.015135 0.008643 -0.025608 -0.049831 -0.039057 -0.997994 
-0.012673 0.004836 -0.026114 -0.598971 0.130384 -0.790085 
-0.011290 0.007738 -0.026268 -0.330116 0.345621 -0.878390 
-0.010867 0.006997 -0.026750 -0.308772 0.372593 -0.875120 
-0.011714 0.006779 -0.026381 -0.540641 0.263046 -0.799071 
-0.012368 0.004820 -0.026455 -0.765001 0.271499 -0.584004 
-0.011956 0.008360 -0.025819 -0.220601 0.249690 -0.942863 
-0.012278 0.007402 -0.025881 -0.364527 0.134316 -0.921455 
-0.009960 0.007795 -0.026612 -0.155762 0.400218 -0.903086 
-0.010646 0.008677 -0.026021 -0.212622 0.394707 -0.893867 
-0.012723 0.005617 -0.025777 -0.402940 0.229415 -0.886007 
-0.012036 0.004857 -0.026938 -0.677401 0.100417 -0.728728 
-0.012280 0.005261 -0.026299 -0.705650 0.299291 -0.642248 
-0.012082 0.006010 -0.026267 -0.661657 0.191322 -0.724986 
-0.011739 0.005584 -0.026740 -0.655587 0.328090 -0.680120 
-0.012986 0.006222 -0.025572 -0.218306 0.032269 -0.975347 
-0.012472 0.006553 -0.025849 -0.493921 0.023451 -0.869190 
-0.011375 0.005226 -0.027288 -0.470389 0.325868 -0.820088 
-0.011676 0.006140 -0.026628 -0.621438 0.237207 -0.746692 
-0.011175 0.006125 -0.026985 -0.416563 0.356320 -0.836368 
-0.018340 0.004593 -0.027632 0.465128 0.622170 -0.629730 
-0.015851 0.004266 -0.025964 0.009849 0.512326 -0.858734 
-0.016280 0.004371 -0.025934 0.047003 0.415811 -0.908236 
-0.016998 0.004711 -0.025990 0.157309 0.219174 -0.962921 
-0.017090 0.005465 -0.025818 0.054777 0.218739 -0.974245 
-0.018023 0.004922 -0.026067 0.162691 0.515723 -0.841167 
-0.016418 0.004117 -0.026299 0.216487 0.895574 -0.388690 
-0.018126 0.004507 -0.026860 0.281034 0.959260 -0.028984 
-0.017691 0.004401 -0.027121 0.372351 0.908535 -0.189521 
-0.016892 0.004221 -0.026153 0.145547 0.890879 -0.430291 
-0.016847 0.004411 -0.026015 0.209687 0.348448 -0.913573 
-0.017283 0.004265 -0.026594 0.245722 0.968449 -0.041567 
-0.017375 0.004328 -0.026202 0.377257 0.721160 -0.581038 
-0.017948 0.004548 -0.026298 0.325297 0.713163 -0.620952 
-0.018954 0.004762 -0.027938 0.408702 0.599996 -0.687727 
-0.029315 0.003054 -0.013843 0.161736 -0.986452 -0.027467 
-0.028400 0.003077 -0.013963 -0.073156 -0.995841 -0.054311 
-0.029091 0.003084 -0.013050 0.038771 -0.997952 -0.050886 
-0.028372 0.002975 -0.012456 -0.068143 -0.995692 -0.062887 
-0.027376 0.002849 -0.011182 -0.018675 -0.998147 -0.057907 
-0.026947 0.002903 -0.013283 -0.044563 -0.998542 -0.030472 
-0.030216 0.002822 -0.009367 -0.641984 -0.766716 -0.001480 
-0.030117 0.002823 -0.012699 -0.296615 -0.953381 -0.055530 
-0.029955 0.002548 -0.009496 -0.178121 -0.983816 -0.019488 
-0.029557 0.002926 -0.012630 0.282858 -0.952914 -0.109297 
-0.029459 0.002689 -0.011299 0.177853 -0.980013 -0.089127 
-0.029067 0.002801 -0.010503 0.128928 -0.990295 -0.051899 
-0.029250 0.002798 -0.010028 0.121388 -0.991566 -0.045400 
-0.027347 0.003033 -0.015444 -0.109389 -0.993995 0.002795 
-0.028747 0.002926 -0.011211 0.056592 -0.993834 -0.095351 
-0.031796 0.015075 0.000884 -0.999154 -0.019997 -0.035924 
-0.031728 0.012512 0.002129 -0.997261 -0.064136 -0.036825 
-0.031917 0.014700 0.003759 -0.998680 -0.028478 -0.042750 
-0.031376 0.008694 0.000582 -0.997599 -0.061073 -0.032665 
-0.031604 0.012385 -0.002332 -0.998716 -0.049947 -0.008444 
-0.029223 0.002985 -0.012093 0.136756 -0.981634 -0.133011 
-0.029665 0.002667 -0.010071 0.150770 -0.987559 -0.044680 
-0.031498 0.015406 -0.007688 -0.998499 -0.024247 0.049117 
-0.031464 0.016474 -0.007150 -0.997469 0.060331 -0.037633 
-0.031554 0.016468 -0.008187 -0.981292 0.040645 0.188184 
-0.031423 0.012608 -0.008594 -0.988159 -0.081751 0.129839 
-0.031340 0.012343 -0.007590 -0.996698 -0.003214 -0.081130 
-0.031401 0.014023 -0.007865 -0.995868 -0.058209 0.069700 
-0.031436 0.017656 -0.006713 -0.976235 0.116038 -0.183029 
-0.031358 0.017297 -0.007528 -0.988596 0.144101 0.043736 
-0.031549 0.015088 -0.006985 -0.995312 -0.008653 -0.096333 
-0.031595 0.016394 -0.006224 -0.995514 0.036220 -0.087407 
-0.031473 0.013742 -0.006972 -0.988842 -0.025812 -0.146717 
-0.031607 0.012772 -0.006424 -0.993803 -0.020878 -0.109181 
-0.031600 0.017711 -0.005699 -0.995590 0.055202 -0.075851 
-0.031466 0.018375 -0.006254 -0.969132 0.160956 -0.186751 
-0.031631 0.014706 -0.006088 -0.997687 -0.002054 -0.067946 
-0.031681 0.016071 -0.004464 -0.999833 0.002564 -0.018086 
-0.031638 0.013451 -0.005137 -0.999790 -0.020183 -0.003648 
-0.031209 0.018817 -0.006777 -0.990053 0.080994 -0.115047 
-0.031461 0.018812 -0.005585 -0.973137 0.203416 -0.107829 
-0.031180 0.019779 -0.005966 -0.996766 0.050989 -0.062107 
-0.031241 0.020416 -0.006278 -0.986785 -0.156137 0.043324 
-0.031292 0.020763 -0.005359 -0.987684 -0.152067 -0.036822 
-0.031882 0.016585 0.003162 -0.998957 0.022259 -0.039876 
-0.031671 0.018952 -0.000544 -0.994218 0.103819 -0.027422 
-0.031663 0.018588 -0.001747 -0.996913 0.068013 -0.039230 
-0.031775 0.017709 0.000451 -0.999122 0.034082 -0.024352 
-0.031688 0.019035 0.000629 -0.994419 0.103577 -0.020050 
-0.031494 0.020325 -0.000233 -0.999644 0.025338 -0.008386 
-0.031376 0.019485 -0.004599 -0.990674 0.116321 -0.070954 
-0.031601 0.018186 -0.004798 -0.995159 0.094628 -0.026546 
-0.031740 0.016393 -0.001984 -0.999643 -0.000800 -0.026701 
-0.031951 0.017955 0.005595 -0.997882 0.061071 -0.022425 
-0.031749 0.019033 0.004266 -0.980174 0.196294 -0.026971 
-0.031753 0.018669 0.002648 -0.994026 0.107169 -0.020653 
-0.031645 0.018183 -0.003432 -0.996002 0.081686 -0.036150 
-0.031525 0.019931 0.004668 -0.989540 0.143086 -0.018336 
-0.031587 0.019644 0.003438 -0.988184 0.153052 0.008188 
-0.031332 0.020743 -0.004096 -0.994464 -0.080193 -0.067904 
-0.031440 0.019793 -0.003124 -0.995018 0.054014 -0.083790 
-0.031530 0.021233 -0.003021 -0.994524 -0.079972 -0.067284 
-0.031511 0.021618 -0.004826 -0.984365 -0.175813 0.010722 
-0.031624 0.021924 -0.005845 -0.990292 -0.136917 0.023969 
-0.031564 0.019516 -0.001165 -0.995420 0.095591 0.001199 
-0.031567 0.021915 -0.004081 -0.992114 -0.123634 -0.020598 
-0.031616 0.022683 -0.005049 -0.998784 -0.048812 0.006866 
-0.031633 0.023171 -0.006332 -0.999814 0.015384 -0.011667 
-0.031555 0.020178 -0.001839 -0.999817 0.010559 -0.015948 
-0.031675 0.024612 -0.005768 -0.998607 -0.027904 -0.044778 
-0.031572 0.020006 0.002467 -0.994777 0.097726 0.029454 
-0.031656 0.023129 -0.003544 -0.999469 -0.032180 0.005088 
-0.031615 0.021928 -0.001684 -0.999627 -0.022626 0.015283 
-0.031571 0.020905 0.000845 -0.999777 0.001847 -0.021013 
-0.031582 0.019963 0.001319 -0.997109 0.074421 -0.015327 
-0.031465 0.020811 0.003445 -0.999896 0.008274 0.011803 
-0.031537 0.021150 0.001860 -0.999519 0.015394 0.026930 
-0.030846 0.003279 -0.009267 -0.581324 -0.813672 0.000359 
-0.030734 0.003151 -0.008123 -0.636485 -0.770371 -0.037614 
-0.030940 0.003423 -0.008557 -0.892220 -0.448944 0.048923 
-0.031562 0.010851 -0.005559 -0.999061 -0.040673 -0.014930 
-0.031697 0.025293 -0.004077 -0.999724 -0.017489 0.015696 
-0.031540 0.022854 0.002610 -0.999708 -0.023907 -0.003530 
-0.031041 0.003407 -0.010164 -0.856242 -0.516564 0.003340 
-0.031133 0.004083 -0.010583 -0.998394 -0.056031 0.008351 
-0.031124 0.003585 -0.011268 -0.977626 -0.210118 0.009894 
-0.031799 0.036965 0.001919 -0.999863 0.010070 -0.013113 
-0.031848 0.034119 -0.000259 -0.999993 0.002805 0.002580 
-0.031882 0.035428 0.004447 -0.998868 0.007271 -0.047012 
-0.031556 0.022514 0.000270 -0.999895 -0.010213 0.010268 
-0.031713 0.027348 -0.003265 -0.999574 -0.024080 0.016470 
-0.031736 0.027030 -0.005672 -0.999916 -0.011280 -0.006407 
-0.031505 0.020810 0.004726 -0.999422 -0.018990 -0.028182 
-0.031607 0.024516 -0.001915 -0.999628 -0.011170 0.024896 
-0.031564 0.021909 0.004706 -0.999139 -0.033603 -0.024314 
-0.031895 0.033139 -0.004806 -0.999746 -0.022337 -0.002903 
-0.031627 0.024762 0.004805 -0.999117 -0.035786 -0.022024 
-0.031841 0.027472 0.006767 -0.998768 -0.044294 -0.022376 
-0.031806 0.030225 0.003389 -0.999289 -0.028882 -0.024227 
-0.031106 0.007171 -0.011402 -0.999702 -0.013073 0.020608 
-0.031142 0.008305 -0.009064 -0.999646 -0.024596 -0.010125 
-0.031201 0.009282 -0.010491 -0.995923 -0.083434 0.034281 
-0.031153 0.005248 -0.010944 -0.999905 0.008888 0.010534 
-0.031134 0.006362 -0.009159 -0.999824 0.005697 -0.017849 
-0.031586 0.025990 0.000630 -0.999428 -0.033817 0.000287 
-0.032028 0.033076 0.007202 -0.999374 -0.029959 -0.018791 
-0.031777 0.029933 -0.005593 -0.999558 -0.023403 -0.018356 
-0.031183 0.007852 -0.007905 -0.993781 -0.011096 -0.110798 
-0.031293 0.008272 -0.002394 -0.997911 -0.063882 0.009630 
-0.031402 0.008627 -0.004424 -0.997733 -0.055684 0.037805 
-0.031933 0.030079 0.006496 -0.999296 -0.031657 -0.020112 
-0.031802 0.030305 -0.001873 -0.999508 -0.031027 0.004651 
-0.031431 0.021176 -0.006655 -0.976150 -0.214340 0.034495 
-0.031197 0.006352 -0.007813 -0.993510 -0.004727 -0.113645 
-0.031791 0.036918 -0.001024 -0.999806 0.019622 -0.001736 
-0.030577 0.003180 -0.010076 -0.548912 -0.835802 -0.011443 
-0.030723 0.003270 -0.012408 -0.514846 -0.855952 -0.047747 
-0.031230 0.005984 -0.003497 -0.997774 -0.055695 0.036672 
-0.031346 0.005811 -0.005680 -0.997551 -0.060979 0.034263 
-0.030997 0.003403 -0.009292 -0.854626 -0.515895 0.058881 
-0.031454 0.008405 -0.005992 -0.999209 -0.039188 -0.006740 
-0.031136 0.003765 -0.009220 -0.988203 -0.149864 0.031552 
-0.031083 0.003951 -0.008018 -0.984934 -0.172153 -0.016400 
-0.031182 0.004126 -0.012560 -0.997071 -0.075051 0.014695 
-0.031063 0.003469 -0.012228 -0.874847 -0.480478 -0.061515 
-0.031170 0.005078 -0.008012 -0.997094 -0.028805 -0.070521 
-0.031269 0.004475 -0.006901 -0.992895 -0.115309 -0.029367 
-0.031319 0.005643 -0.007106 -0.995935 -0.030855 -0.084621 
-0.031169 0.004717 -0.009286 -0.999893 -0.013615 0.005370 
-0.031420 0.009149 -0.006888 -0.991112 -0.025238 -0.130611 
-0.031367 0.007087 -0.006919 -0.994309 -0.026085 -0.103288 
-0.031205 0.009456 -0.008032 -0.993669 -0.058072 -0.096170 
-0.031442 0.010989 -0.007150 -0.993455 -0.033979 -0.109055 
-0.031206 0.009566 -0.008907 -0.997741 -0.067110 0.003104 
-0.031322 0.010988 -0.008803 -0.996388 -0.081313 0.024477 
-0.030950 0.003273 -0.011284 -0.562992 -0.826405 -0.009717 
-0.031769 0.040665 0.028859 -0.548543 0.434066 0.714624 
-0.032054 0.040338 0.028502 -0.941077 0.187486 0.281466 
-0.031972 0.040090 0.028855 -0.810729 0.149184 0.566094 
-0.031649 0.047118 0.029534 -0.747310 0.030414 0.663779 
-0.031565 0.045944 0.029703 -0.581433 0.017036 0.813416 
-0.031047 0.047754 0.030065 -0.525054 0.026562 0.850654 
-0.032210 0.045773 0.028502 -0.918597 -0.053335 0.391581 
-0.032374 0.045139 0.027972 -0.955641 -0.110082 0.273190 
-0.032163 0.043677 0.028188 -0.985296 -0.023576 0.169224 
-0.032103 0.041038 0.022997 -0.992530 -0.120154 -0.021162 
-0.032086 0.040550 0.020301 -0.995977 -0.089514 -0.004060 
-0.031911 0.039428 0.021888 -0.996527 0.007128 0.082960 
-0.032669 0.046294 0.027266 -0.984318 -0.079073 0.157689 
-0.032515 0.044512 0.027036 -0.985640 -0.121484 0.117284 
-0.032132 0.041210 0.016885 -0.990820 -0.133043 -0.023994 
-0.032364 0.043064 0.019008 -0.996156 -0.087088 -0.009427 
-0.032064 0.038828 0.024160 -0.979516 0.190758 -0.064492 
-0.032296 0.038121 0.023816 -0.946440 0.314623 -0.072551 
-0.032441 0.038005 0.024688 -0.947512 0.313749 -0.061497 
-0.031474 0.039373 0.029163 -0.093216 0.101387 0.990470 
-0.032014 0.039222 0.028922 -0.765313 0.105988 0.634873 
-0.031890 0.038344 0.029213 -0.559087 0.113996 0.821235 
-0.031140 0.040831 0.028935 -0.233178 0.162007 0.958844 
-0.030904 0.041714 0.029020 -0.272458 -0.156678 0.949325 
-0.031572 0.041596 0.028718 -0.590414 -0.118846 0.798303 
-0.032919 0.048273 0.026339 -0.992114 -0.030825 0.121489 
-0.031719 0.044862 0.029642 -0.357233 -0.134330 0.924305 
-0.031985 0.044929 0.029437 -0.804438 -0.005877 0.594007 
-0.031731 0.043823 0.029331 -0.379351 -0.241427 0.893200 
-0.031664 0.042481 0.028953 -0.404890 -0.336480 0.850203 
-0.032136 0.041928 0.028127 -0.951349 -0.132648 0.278099 
-0.032007 0.038826 0.023029 -0.979167 0.191238 -0.068258 
-0.032162 0.038301 0.022572 -0.950322 0.311268 -0.000309 
-0.032597 0.037227 0.024302 -0.982298 0.173797 -0.069898 
-0.032537 0.046006 0.019238 -0.996339 -0.071697 -0.046563 
-0.032464 0.044048 0.021746 -0.993299 -0.112825 -0.025049 
-0.032893 0.047547 0.021873 -0.993304 -0.099721 -0.058339 
-0.031451 0.038748 0.029203 0.033971 0.072270 0.996806 
-0.031459 0.038134 0.029252 0.088109 0.111278 0.989876 
-0.031895 0.040962 0.028420 -0.838155 0.177191 0.515848 
-0.032649 0.033634 0.021773 -0.995220 -0.011324 -0.097005 
-0.032825 0.032945 0.023863 -0.997435 -0.004630 -0.071432 
-0.032692 0.034686 0.022484 -0.996486 0.028072 -0.078916 
-0.032239 0.029640 0.019966 -0.991525 -0.063781 -0.113181 
-0.032639 0.031249 0.022339 -0.993082 -0.036181 -0.111707 
-0.032362 0.033332 0.019145 -0.994845 -0.030574 -0.096684 
-0.032024 0.037758 0.016362 -0.983710 0.164143 -0.073290 
-0.032233 0.037198 0.018444 -0.990591 0.110259 -0.081066 
-0.031939 0.038384 0.018101 -0.978829 0.192604 -0.069267 
-0.032622 0.027589 0.023248 -0.988444 -0.066135 -0.136400 
-0.032206 0.035909 0.017376 -0.996475 0.029798 -0.078420 
-0.032131 0.034213 0.015847 -0.998125 -0.010011 -0.060390 
-0.032059 0.048011 0.028995 -0.852152 -0.002415 0.523288 
-0.031952 0.045693 0.029148 -0.912039 0.048495 0.407225 
