0.036125 -0.052442 0.002070 -0.537461 0.416252 -0.733396 
0.047964 -0.023826 0.013087 0.511889 0.003244 0.859046 
0.047719 -0.023380 0.013215 0.370961 -0.034615 0.928003 
0.047371 -0.023514 0.013307 0.152654 -0.024813 0.987968 
0.036633 -0.051902 0.001996 -0.525555 0.393251 -0.754417 
0.048352 -0.025413 0.012629 0.966377 0.031490 0.255195 
0.009589 -0.054409 0.009946 -0.907417 -0.376188 0.187290 
0.009288 -0.053515 0.010157 -0.920502 -0.331883 0.206228 
0.048307 -0.024955 0.012707 0.941397 0.007056 0.337226 
0.008949 -0.052941 0.009510 -0.926055 -0.320996 0.198452 
0.048203 -0.025507 0.012928 0.769983 0.019949 0.637752 
0.048007 -0.025436 0.013095 0.505327 0.007910 0.862892 
0.008636 -0.052864 0.008021 -0.928565 -0.338800 0.151597 
0.048132 -0.025029 0.013001 0.657382 0.002279 0.753554 
0.048222 -0.024633 0.012899 0.848037 0.011309 0.529816 
0.008347 -0.051844 0.008392 -0.934278 -0.310580 0.175115 
0.037023 -0.051432 0.001967 -0.520883 0.371154 -0.768716 
0.037406 -0.051123 0.001861 -0.442942 0.310182 -0.841183 
0.048382 -0.024321 0.012479 0.968459 -0.005822 0.249106 
0.036574 -0.051423 0.002327 -0.628980 0.443113 -0.638776 
0.036995 -0.050993 0.002225 -0.597885 0.409489 -0.689095 
0.013263 -0.010810 0.011018 -0.762988 0.211626 0.610789 
0.037773 -0.051094 0.001712 -0.328997 0.218674 -0.918663 
0.008030 -0.051288 0.007686 -0.938758 -0.306787 0.156891 
0.048297 -0.024042 0.012713 0.901550 0.019100 0.432254 
0.048368 -0.023698 0.012521 0.958649 -0.001281 0.284587 
0.037410 -0.050641 0.002072 -0.574324 0.371707 -0.729374 
0.038139 -0.050655 0.001691 -0.270270 0.197826 -0.942242 
0.047987 -0.024636 0.013106 0.411981 0.007702 0.911160 
0.037837 -0.050544 0.001847 -0.434980 0.293831 -0.851150 
0.038124 -0.050114 0.001840 -0.426295 0.285121 -0.858475 
0.038515 -0.050275 0.001664 -0.236531 0.176574 -0.955445 
0.037752 -0.050281 0.002004 -0.537067 0.348236 -0.768304 
0.048136 -0.024144 0.012973 0.686585 0.041035 0.725890 
0.037456 -0.050047 0.002352 -0.641272 0.394891 -0.657899 
0.036170 -0.051225 0.002967 -0.695902 0.477504 -0.536387 
0.010120 -0.009399 0.006241 -0.571859 0.521450 0.633299 
0.048221 -0.023718 0.012837 0.808376 0.022445 0.588239 
0.036714 -0.050818 0.002636 -0.672097 0.452477 -0.586131 
0.008202 -0.051216 0.008602 -0.937125 -0.274829 0.215094 
0.036607 -0.050523 0.003013 -0.722879 0.464882 -0.511205 
0.035953 -0.051105 0.003429 -0.752226 0.503256 -0.425310 
0.010289 -0.008986 0.006115 -0.711012 0.397772 0.579862 
0.037055 -0.050438 0.002528 -0.668822 0.417644 -0.615021 
0.010589 -0.008157 0.005946 -0.775878 0.377977 0.505121 
0.037070 -0.049848 0.002933 -0.732891 0.444400 -0.515150 
0.008658 -0.052607 0.008704 -0.929542 -0.317958 0.186694 
0.009933 -0.009835 0.006465 -0.346173 0.517715 0.782391 
0.048511 -0.021843 0.011746 0.988781 0.038881 0.144223 
0.010276 -0.009547 0.006417 -0.442734 0.428852 0.787447 
0.010452 -0.009822 0.006681 -0.616526 0.375837 0.691839 
0.048450 -0.022797 0.012229 0.979987 0.002529 0.199046 
0.008622 -0.052014 0.009387 -0.933255 -0.287073 0.215925 
0.035023 -0.052114 0.003887 -0.752031 0.549994 -0.363257 
0.010548 -0.009344 0.006542 -0.677836 0.333236 0.655356 
0.048427 -0.022184 0.012373 0.971718 0.016207 0.235589 
0.010695 -0.009553 0.006834 -0.777234 0.308335 0.548485 
0.010824 -0.009070 0.006780 -0.810569 0.257355 0.526066 
0.009747 -0.054174 0.011091 -0.908743 -0.359569 0.211889 
0.035760 -0.050907 0.004105 -0.782361 0.513355 -0.352673 
0.048024 -0.023438 0.013047 0.627260 0.020122 0.778550 
0.035174 -0.051589 0.004402 -0.779994 0.542722 -0.311548 
0.009013 -0.052601 0.010280 -0.928836 -0.292117 0.227885 
0.047684 -0.023011 0.013248 0.381664 0.013148 0.924208 
0.048239 -0.023227 0.012799 0.842659 0.022263 0.537987 
0.048035 -0.022798 0.012996 0.668733 0.015061 0.743350 
0.048294 -0.022714 0.012688 0.876597 -0.008582 0.481149 
0.009397 -0.053208 0.011021 -0.924997 -0.303134 0.229107 
0.047781 -0.022460 0.013189 0.412341 -0.020663 0.910795 
0.011306 -0.009212 0.007605 -0.797101 0.288368 0.530542 
0.011000 -0.009394 0.007216 -0.811921 0.279032 0.512763 
0.048311 -0.022116 0.012687 0.865202 -0.037084 0.500050 
0.010666 -0.008747 0.006382 -0.757840 0.312629 0.572662 
0.048055 -0.022179 0.012999 0.703241 -0.055263 0.708800 
0.035547 -0.050879 0.004672 -0.802140 0.517791 -0.297428 
0.035200 -0.051143 0.005161 -0.807547 0.539409 -0.238549 
0.048299 -0.021737 0.012701 0.930316 0.067578 0.360478 
0.048180 -0.021766 0.012938 0.765686 -0.044842 0.641650 
0.010943 -0.008688 0.006790 -0.831257 0.269908 0.485964 
0.048466 -0.023342 0.012138 0.985971 -0.005330 0.166832 
0.008435 -0.051121 0.009714 -0.937458 -0.255329 0.236598 
0.007947 -0.049996 0.008972 -0.944002 -0.228105 0.238386 
0.011242 -0.008770 0.007335 -0.800257 0.246788 0.546520 
0.036375 -0.050356 0.003552 -0.771380 0.488080 -0.408351 
0.048394 -0.023177 0.012437 0.946283 0.004497 0.323308 
0.011329 -0.008026 0.007104 -0.817301 0.290145 0.497831 
0.036717 -0.049600 0.003791 -0.785502 0.474935 -0.396767 
0.008718 -0.051526 0.010395 -0.936051 -0.254741 0.242725 
0.037297 -0.049251 0.003125 -0.766415 0.436609 -0.471149 
0.036090 -0.050118 0.004490 -0.804215 0.501013 -0.319725 
0.010979 -0.007453 0.005965 -0.809346 0.353283 0.469201 
0.035726 -0.050228 0.005349 -0.821753 0.515265 -0.243358 
0.010987 -0.006916 0.005633 -0.831919 0.295048 0.469955 
0.036464 -0.049466 0.004570 -0.816904 0.483555 -0.314392 
0.009197 -0.051974 0.011754 -0.933128 -0.254861 0.253611 
0.037048 -0.048918 0.003946 -0.805453 0.455716 -0.378904 
0.011003 -0.008062 0.006503 -0.816170 0.330403 0.474025 
0.011234 -0.007395 0.006437 -0.849141 0.312040 0.426134 
0.047016 -0.023389 0.013319 -0.038499 -0.031112 0.998774 
0.046573 -0.022980 0.013308 -0.073391 -0.035140 0.996684 
0.047253 -0.022832 0.013329 0.110418 -0.017079 0.993739 
0.008594 -0.050697 0.010674 -0.939013 -0.220385 0.263978 
0.008840 -0.050813 0.011455 -0.936724 -0.205053 0.283727 
0.011628 -0.007224 0.007105 -0.827277 0.278247 0.488049 
0.046986 -0.022369 0.013355 -0.017600 -0.039460 0.999066 
0.011225 -0.006870 0.006071 -0.869197 0.261745 0.419506 
0.040348 -0.053283 0.004267 0.835229 -0.530013 -0.146555 
0.040593 -0.052659 0.003534 0.843650 -0.502645 -0.188685 
0.011282 -0.005910 0.005531 -0.864555 0.271826 0.422677 
0.047445 -0.021975 0.013318 0.217054 -0.034761 0.975541 
0.041149 -0.051986 0.004341 0.857107 -0.493709 -0.147035 
0.046953 -0.021567 0.013387 0.010668 -0.036748 0.999268 
0.040753 -0.052882 0.005271 0.845225 -0.523526 -0.107308 
0.040384 -0.053629 0.006208 0.840265 -0.534334 -0.091880 
0.047302 -0.021260 0.013371 0.163362 -0.036196 0.985902 
0.047757 -0.021352 0.013241 0.383844 -0.033118 0.922804 
0.046981 -0.020795 0.013408 0.023926 -0.026730 0.999356 
0.011708 -0.008829 0.007979 -0.799719 0.272809 0.534813 
0.047904 -0.021770 0.013158 0.469519 -0.052046 0.881387 
0.009907 -0.054125 0.011830 -0.909430 -0.348810 0.226425 
0.011934 -0.007941 0.007904 -0.808625 0.256603 0.529416 
0.047992 -0.021557 0.013114 0.607408 0.039947 0.793385 
0.009959 -0.053755 0.012584 -0.902011 -0.322267 0.287265 
0.009655 -0.053145 0.012160 -0.925683 -0.292749 0.239601 
0.041091 -0.051602 0.003083 0.846995 -0.490791 -0.204265 
0.041117 -0.051416 0.002787 0.827021 -0.476490 -0.298318 
0.010313 -0.054525 0.012735 -0.885510 -0.371204 0.279429 
0.041411 -0.051295 0.003742 0.862079 -0.479431 -0.164214 
0.041388 -0.051145 0.003183 0.857025 -0.463156 -0.225819 
0.012204 -0.009343 0.009105 -0.785122 0.266232 0.559200 
0.012041 -0.008921 0.008600 -0.827807 0.278391 0.487066 
0.007764 -0.050567 0.007392 -0.950748 -0.271614 0.149346 
0.048467 -0.021032 0.011716 0.990579 0.078091 0.112498 
0.041544 -0.051307 0.004555 0.869265 -0.476707 -0.130874 
0.041810 -0.050565 0.003729 0.869991 -0.463340 -0.168617 
0.012044 -0.008338 0.008268 -0.834789 0.254017 0.488470 
0.007961 -0.050768 0.008135 -0.944275 -0.260034 0.201812 
0.048489 -0.020798 0.011029 0.993721 0.111554 0.008566 
0.048418 -0.020233 0.011239 0.988629 0.149656 -0.014725 
0.048432 -0.020452 0.011590 0.988829 0.113175 0.096994 
0.048394 -0.021304 0.012316 0.964902 0.072645 0.252364 
0.048351 -0.020568 0.012249 0.961097 0.096471 0.258818 
0.012344 -0.008513 0.008899 -0.803972 0.263912 0.532898 
0.041258 -0.052139 0.005797 0.864136 -0.492619 -0.102935 
0.048145 -0.021363 0.012953 0.834967 0.072132 0.545552 
0.012410 -0.007943 0.008721 -0.820766 0.242367 0.517303 
0.048133 -0.020861 0.012872 0.894617 0.092024 0.437255 
0.032331 -0.054550 0.005893 -0.707182 0.682717 -0.183824 
0.031884 -0.055100 0.005527 -0.672064 0.715965 -0.189009 
0.031660 -0.055101 0.006387 -0.686666 0.714004 -0.136704 
0.012838 -0.007670 0.009188 -0.797159 0.228478 0.558870 
0.032175 -0.054532 0.006639 -0.717197 0.687131 -0.116101 
0.048331 -0.019699 0.011504 0.984310 0.160134 0.074102 
0.048283 -0.019954 0.012224 0.967611 0.137257 0.211871 
0.012720 -0.008678 0.009486 -0.777580 0.249766 0.577050 
0.008310 -0.050261 0.010058 -0.937610 -0.219655 0.269516 
0.008056 -0.049338 0.009883 -0.942305 -0.183140 0.280217 
0.032711 -0.054006 0.006393 -0.741293 0.655712 -0.143268 
0.031094 -0.055528 0.006975 -0.651362 0.752293 -0.098906 
0.008377 -0.049648 0.010706 -0.938751 -0.190722 0.287004 
0.032422 -0.054166 0.007428 -0.733636 0.677614 -0.051170 
0.048329 -0.019787 0.011046 0.989104 0.146115 -0.018016 
0.012034 -0.006980 0.007575 -0.826340 0.246897 0.506166 
0.048262 -0.019256 0.011262 0.988036 0.151057 0.031103 
0.032898 -0.053641 0.007235 -0.764316 0.639896 -0.079712 
0.033410 -0.053138 0.006561 -0.764193 0.626284 -0.154200 
0.032620 -0.053953 0.007827 -0.750958 0.659056 0.041322 
0.011857 -0.006154 0.006923 -0.849989 0.239941 0.468985 
0.034021 -0.052436 0.006281 -0.795956 0.581657 -0.167718 
0.048030 -0.017833 0.011336 0.980746 0.183725 0.066204 
0.007807 -0.047936 0.009799 -0.943425 -0.109277 0.313061 
0.048142 -0.018930 0.012012 0.974755 0.171996 0.142374 
0.006562 -0.044719 0.000826 -0.928201 -0.125404 -0.350309 
0.006708 -0.045182 0.000660 -0.887642 -0.130854 -0.441552 
0.006570 -0.045212 0.001117 -0.965168 -0.166179 -0.202080 
0.006896 -0.044916 0.000348 -0.722336 -0.052232 -0.689567 
0.007041 -0.044606 0.000230 -0.543223 -0.009883 -0.839530 
0.007133 -0.045029 0.000179 -0.494973 -0.025975 -0.868520 
0.012538 -0.007149 0.008555 -0.833755 0.222195 0.505453 
0.006738 -0.044737 0.000517 -0.782275 -0.074676 -0.618442 
0.006948 -0.045433 0.000337 -0.739072 -0.093410 -0.667119 
0.006852 -0.044206 0.000354 -0.642432 -0.037355 -0.765432 
0.007167 -0.044282 0.000170 -0.368841 -0.007899 -0.929459 
0.006640 -0.044184 0.000585 -0.822048 -0.091804 -0.561968 
0.048106 -0.019362 0.012519 0.938926 0.163607 0.302740 
0.006420 -0.044512 0.001281 -0.975875 -0.147529 -0.160943 
0.006454 -0.044994 0.001733 -0.983267 -0.167681 -0.071192 
0.006417 -0.044006 0.001005 -0.953360 -0.130626 -0.272106 
0.048059 -0.017881 0.010217 0.980727 0.187083 0.056344 
0.006295 -0.043575 0.001210 -0.965061 -0.145235 -0.218090 
0.006239 -0.043699 0.001770 -0.983505 -0.152959 -0.096548 
0.033893 -0.052399 0.007262 -0.795080 0.599018 -0.095000 
0.034488 -0.051633 0.006867 -0.816166 0.567040 -0.111078 
0.034255 -0.051876 0.007600 -0.811739 0.583433 0.026191 
0.006204 -0.043820 0.002611 -0.985377 -0.163304 -0.048613 
0.032227 -0.054407 0.008088 -0.719171 0.687053 0.103685 
0.047505 -0.020814 0.013352 0.248788 -0.017336 0.968403 
0.013343 -0.008107 0.010098 -0.793917 0.228395 0.563499 
0.047917 -0.020962 0.013179 0.603204 0.010939 0.797512 
0.006089 -0.043025 0.002460 -0.991216 -0.120643 -0.054183 
0.032815 -0.053807 0.008257 -0.743991 0.648609 0.160575 
0.032503 -0.054298 0.008723 -0.709393 0.664465 0.235051 
0.047892 -0.020625 0.013179 0.684143 0.069321 0.726046 
0.048083 -0.020244 0.012834 0.896598 0.101782 0.430990 
0.007011 -0.047316 0.001007 -0.955015 -0.217433 -0.201667 
0.033107 -0.053361 0.007680 -0.773571 0.631567 0.052059 
0.047657 -0.020461 0.013301 0.373118 0.016819 0.927631 
0.006969 -0.047460 0.001564 -0.968791 -0.230057 -0.092290 
0.033296 -0.053246 0.008363 -0.774993 0.608079 0.172125 
0.006920 -0.046637 0.000792 -0.932188 -0.197728 -0.303198 
0.047731 -0.019996 0.013251 0.552634 0.067787 0.830663 
0.047888 -0.020086 0.013100 0.760460 0.109628 0.640064 
0.047757 -0.019578 0.013142 0.735570 0.143504 0.662075 
0.006784 -0.046549 0.001298 -0.968581 -0.208822 -0.135073 
0.048063 -0.019654 0.012740 0.876600 0.123230 0.465173 
0.006912 -0.046096 0.000529 -0.846779 -0.143691 -0.512171 
0.006777 -0.046038 0.000847 -0.948398 -0.186890 -0.256151 
0.013146 -0.006630 0.009262 -0.808279 0.199034 0.554140 
0.033005 -0.053751 0.008744 -0.740355 0.621287 0.256663 
0.032871 -0.054163 0.009345 -0.688000 0.624722 0.369296 
0.012793 -0.006308 0.008661 -0.837433 0.213820 0.502977 
0.033320 -0.053658 0.009352 -0.715398 0.594025 0.367885 
0.047154 -0.020330 0.013408 0.107087 -0.002747 0.994246 
0.033569 -0.053116 0.008943 -0.747841 0.592418 0.299624 
0.006626 -0.046209 0.002251 -0.978589 -0.194226 -0.068122 
0.013361 -0.009089 0.010524 -0.779004 0.222309 0.586286 
0.006665 -0.045890 0.001245 -0.975286 -0.176370 -0.133086 
0.033041 -0.054466 0.010013 -0.651063 0.596276 0.469651 
0.033554 -0.053847 0.009970 -0.680258 0.574232 0.455528 
0.047459 -0.019970 0.013360 0.233806 0.018101 0.972115 
0.047552 -0.019692 0.013314 0.385730 0.087573 0.918446 
0.006768 -0.045743 0.000712 -0.925339 -0.144991 -0.350322 
0.033893 -0.053093 0.009544 -0.701987 0.572962 0.423000 
0.047577 -0.019274 0.013241 0.597138 0.086998 0.797407 
0.047296 -0.019397 0.013373 0.267911 0.005489 0.963428 
0.047475 -0.018931 0.013293 0.481241 0.023519 0.876273 
0.033466 -0.052925 0.007407 -0.779316 0.623805 -0.059448 
0.033456 -0.052942 0.007894 -0.784735 0.614891 0.078106 
0.033950 -0.052299 0.007755 -0.787401 0.613033 0.064730 
0.033742 -0.052688 0.008472 -0.774744 0.604037 0.186848 
0.047960 -0.018586 0.012547 0.936123 0.159669 0.313335 
0.047881 -0.019131 0.012895 0.839583 0.125670 0.528496 
0.047755 -0.018401 0.012950 0.859830 0.133370 0.492854 
0.034379 -0.051896 0.008565 -0.785097 0.587627 0.195749 
0.047945 -0.018107 0.012250 0.966066 0.190387 0.174556 
0.047830 -0.017183 0.011770 0.970661 0.207282 0.121869 
0.034104 -0.052499 0.009029 -0.735075 0.582722 0.346554 
0.047814 -0.017882 0.012605 0.918064 0.172745 0.356817 
0.034509 -0.052504 0.009767 -0.706852 0.548185 0.447051 
0.047731 -0.017233 0.012432 0.955667 0.190575 0.224460 
0.047658 -0.018941 0.013152 0.739550 0.056367 0.670737 
0.034499 -0.052101 0.009206 -0.747952 0.553078 0.366979 
0.047553 -0.018482 0.013224 0.661353 0.048571 0.748501 
0.047514 -0.017895 0.013196 0.788888 0.116342 0.603424 
0.034741 -0.051556 0.008867 -0.769214 0.539316 0.342708 
0.013797 -0.012857 0.012248 -0.727305 0.169457 0.665065 
0.013793 -0.011610 0.011922 -0.746467 0.185390 0.639075 
0.047403 -0.018236 0.013331 0.442961 0.034215 0.895888 
0.006343 -0.044780 0.003235 -0.985012 -0.161350 -0.060967 
0.006334 -0.045369 0.004542 -0.985876 -0.161976 -0.042566 
0.047621 -0.017458 0.012883 0.900453 0.150363 0.408136 
0.014632 -0.013023 0.013178 -0.709347 0.156347 0.687301 
0.047503 -0.016713 0.012866 0.921679 0.165767 0.350756 
0.006078 -0.043362 0.003921 -0.990033 -0.135981 -0.036655 
0.006966 -0.043862 0.000251 -0.518579 -0.059179 -0.852979 
0.007279 -0.043578 0.000118 -0.274030 0.021264 -0.961486 
0.006705 -0.043752 0.000437 -0.699077 -0.128003 -0.703496 
0.006829 -0.043336 0.000288 -0.447806 -0.025690 -0.893762 
0.014376 -0.011921 0.012653 -0.727213 0.156026 0.668444 
0.034876 -0.051260 0.006107 -0.811612 0.555140 -0.181949 
0.007215 -0.042851 0.000170 -0.269524 0.046789 -0.961856 
0.007452 -0.041867 0.000166 -0.204906 0.037309 -0.978070 
0.007791 -0.043037 0.000044 -0.147226 0.045089 -0.988075 
0.006474 -0.043730 0.000750 -0.888910 -0.149077 -0.433145 
0.006539 -0.043423 0.000542 -0.741560 -0.140379 -0.656035 
0.006407 -0.043228 0.000703 -0.902021 -0.141453 -0.407859 
0.006610 -0.043037 0.000400 -0.689995 -0.086770 -0.718595 
0.006426 -0.042906 0.000592 -0.792264 -0.043466 -0.608628 
0.006250 -0.042702 0.000910 -0.954025 -0.111658 -0.278152 
0.006361 -0.042395 0.000666 -0.829470 -0.033135 -0.557567 
0.006521 -0.042358 0.000497 -0.595439 0.019692 -0.803159 
0.006242 -0.042302 0.000864 -0.897575 -0.063252 -0.436300 
0.006406 -0.042165 0.000598 -0.735296 -0.047922 -0.676050 
0.041880 -0.015275 0.008837 -0.969044 -0.233239 0.080950 
0.006355 -0.041566 0.000593 -0.663574 -0.043942 -0.746819 
0.006660 -0.042031 0.000415 -0.510525 -0.011950 -0.859780 
0.006213 -0.041875 0.000844 -0.900703 -0.070297 -0.428710 
0.006679 -0.042841 0.000363 -0.448191 0.038848 -0.893093 
0.006876 -0.042249 0.000312 -0.338930 0.037997 -0.940044 
0.035464 -0.050368 0.006124 -0.832064 0.531634 -0.158223 
0.035010 -0.050894 0.006723 -0.822623 0.555483 -0.121368 
0.034792 -0.051107 0.007388 -0.825093 0.564925 -0.009012 
0.014968 -0.012316 0.013367 -0.692421 0.142824 0.707216 
0.006477 -0.041279 0.000487 -0.576226 -0.008625 -0.817245 
0.006793 -0.041656 0.000345 -0.327257 0.005524 -0.944919 
0.006666 -0.040934 0.000401 -0.355430 0.021101 -0.934465 
0.007420 -0.041013 0.000184 -0.178737 0.032351 -0.983365 
0.035339 -0.050308 0.007236 -0.833803 0.549638 -0.051675 
0.041710 -0.014706 0.008355 -0.966588 -0.253519 0.037889 
0.041523 -0.014053 0.007739 -0.964012 -0.265854 0.001809 
0.036143 -0.049508 0.005449 -0.835156 0.506807 -0.213686 
0.006978 -0.040537 0.000300 -0.263694 0.052022 -0.963203 
0.041712 -0.014470 0.009352 -0.958447 -0.262913 0.110706 
0.041460 -0.013727 0.008792 -0.957259 -0.282785 0.060734 
0.036579 -0.048934 0.005121 -0.837374 0.483497 -0.255021 
0.008480 -0.040391 0.000072 -0.089073 0.042090 -0.995135 
0.008301 -0.041767 0.000037 -0.115578 0.041388 -0.992436 
0.036011 -0.049343 0.006653 -0.847262 0.513640 -0.135355 
0.041965 -0.015065 0.009935 -0.949513 -0.243728 0.197540 
0.035715 -0.049718 0.007238 -0.845333 0.528897 -0.075363 
0.006136 -0.042927 0.001662 -0.984559 -0.120981 -0.126522 
0.006158 -0.042283 0.001115 -0.973992 -0.095834 -0.205317 
0.036520 -0.048705 0.005877 -0.854644 0.489281 -0.173744 
0.036406 -0.048707 0.006579 -0.860909 0.497737 -0.105330 
0.006090 -0.041578 0.001159 -0.966241 -0.069398 -0.248119 
0.006010 -0.041804 0.001700 -0.990478 -0.090837 -0.103455 
0.034639 -0.051410 0.008015 -0.816827 0.566547 0.108710 
0.035178 -0.050611 0.008068 -0.833863 0.544684 0.089394 
0.005962 -0.042248 0.003348 -0.991519 -0.118158 -0.054110 
0.034840 -0.051263 0.008584 -0.806467 0.549882 0.217349 
0.041858 -0.014473 0.010133 -0.936353 -0.271571 0.222467 
0.041574 -0.013788 0.009727 -0.946747 -0.283663 0.152331 
0.005904 -0.041277 0.002613 -0.993722 -0.092961 -0.062256 
0.035641 -0.049832 0.007650 -0.847445 0.529479 0.038586 
0.035334 -0.050520 0.008598 -0.819164 0.522911 0.235660 
0.006201 -0.041210 0.000776 -0.872996 -0.025382 -0.487066 
0.035244 -0.051022 0.009193 -0.786587 0.506882 0.352636 
0.015108 -0.011064 0.013252 -0.711336 0.148212 0.687047 
0.014330 -0.010726 0.012319 -0.751406 0.182355 0.634141 
0.006164 -0.040793 0.000863 -0.887221 -0.012214 -0.461183 
0.006361 -0.040688 0.000587 -0.669335 0.020638 -0.742674 
0.042249 -0.015196 0.010824 -0.917265 -0.241011 0.317078 
0.035064 -0.051648 0.009663 -0.745584 0.507696 0.431681 
0.006034 -0.041007 0.001226 -0.976196 -0.060036 -0.208416 
0.006058 -0.040554 0.001077 -0.929758 -0.046804 -0.365184 
0.006244 -0.040402 0.000724 -0.780518 -0.026213 -0.624583 
0.006510 -0.040314 0.000508 -0.467331 0.041192 -0.883122 
0.006367 -0.039803 0.000605 -0.506504 0.009636 -0.862184 
0.006822 -0.039841 0.000396 -0.294105 0.051620 -0.954378 
0.006046 -0.039995 0.001015 -0.918100 -0.067266 -0.390598 
0.035682 -0.049850 0.008251 -0.837414 0.526111 0.148138 
0.015447 -0.011810 0.013718 -0.649891 0.129483 0.748916 
0.006199 -0.039707 0.000729 -0.737751 -0.026941 -0.674535 
0.035795 -0.049984 0.008989 -0.803314 0.499100 0.324939 
0.005900 -0.040748 0.002025 -0.992470 -0.073985 -0.097617 
0.005950 -0.040304 0.001429 -0.981104 -0.068706 -0.180873 
0.041703 -0.013649 0.010510 -0.922963 -0.290934 0.251985 
0.036095 -0.049134 0.007124 -0.851308 0.523083 -0.040726 
0.005820 -0.039739 0.002053 -0.994496 -0.062391 -0.084169 
0.042085 -0.014368 0.011021 -0.909707 -0.269353 0.316041 
0.035971 -0.049311 0.007797 -0.844879 0.532546 0.050747 
0.005914 -0.039587 0.001346 -0.975742 -0.080035 -0.203769 
0.042478 -0.014991 0.011556 -0.876824 -0.250443 0.410436 
0.005813 -0.038817 0.001544 -0.993149 -0.038353 -0.110382 
0.036508 -0.048423 0.007254 -0.865847 0.499258 -0.032397 
0.036235 -0.048900 0.007978 -0.861701 0.505044 0.049004 
0.014913 -0.010041 0.012801 -0.739494 0.184273 0.647451 
0.036118 -0.049241 0.008550 -0.835836 0.507711 0.208824 
0.008628 -0.043019 -0.000053 -0.058178 0.038364 -0.997569 
0.036117 -0.049613 0.009188 -0.798276 0.486466 0.355114 
0.036746 -0.047996 0.007793 -0.869704 0.492049 0.038772 
0.015592 -0.010147 0.013548 -0.691140 0.153191 0.706299 
0.036480 -0.048588 0.008455 -0.854919 0.488088 0.175739 
0.036505 -0.048902 0.009087 -0.819051 0.469291 0.330033 
0.036808 -0.048270 0.008986 -0.830833 0.461099 0.311616 
0.036977 -0.047749 0.008589 -0.856462 0.471760 0.209560 
0.041295 -0.012760 0.010031 -0.937489 -0.298641 0.178685 
0.008980 -0.042045 -0.000026 -0.028342 0.038609 -0.998852 
0.013631 -0.007174 0.010161 -0.807753 0.195586 0.556130 
0.041066 -0.052582 0.006640 0.851963 -0.517088 -0.082331 
0.009604 -0.041704 -0.000014 0.077594 0.046599 -0.995895 
0.010103 -0.042125 0.000038 0.207167 0.045532 -0.977245 
0.040614 -0.053454 0.007472 0.847935 -0.523291 -0.084693 
0.008969 -0.041256 0.000005 -0.037189 0.044347 -0.998324 
0.009439 -0.040456 0.000041 0.032432 0.047089 -0.998364 
0.041296 -0.052354 0.007516 0.856061 -0.510705 -0.079618 
0.047817 -0.016612 0.010201 0.977282 0.203127 0.060497 
0.010323 -0.041272 0.000126 0.239052 0.052524 -0.969585 
0.010079 -0.040742 0.000099 0.200539 0.050252 -0.978396 
0.047745 -0.016005 0.009362 0.975566 0.218675 0.021280 
0.041789 -0.051185 0.005821 0.870103 -0.481313 -0.106106 
0.042050 -0.050470 0.004821 0.873518 -0.468705 -0.131458 
0.041533 -0.051750 0.006408 0.864838 -0.494279 -0.087997 
0.014161 -0.009144 0.011595 -0.768556 0.201975 0.607065 
0.011203 -0.041783 0.000430 0.423344 0.045409 -0.904830 
0.010590 -0.041803 0.000189 0.324805 0.047893 -0.944568 
0.047882 -0.017222 0.011125 0.976685 0.208115 0.052674 
0.010871 -0.040957 0.000333 0.351444 0.047491 -0.935004 
0.042101 -0.050836 0.006949 0.873849 -0.477881 -0.089545 
0.042501 -0.049914 0.005950 0.880017 -0.463202 -0.104945 
0.047656 -0.016184 0.011373 0.974541 0.206733 0.086782 
0.039131 -0.055839 0.009276 0.809769 -0.585873 -0.032065 
0.039950 -0.054661 0.010215 0.827028 -0.561724 0.022169 
0.039301 -0.055602 0.010255 0.812494 -0.581358 0.043330 
0.047573 -0.015659 0.010970 0.972887 0.223171 0.060718 
0.006597 -0.046533 0.005864 -0.979546 -0.166769 0.112594 
0.047417 -0.014595 0.009142 0.970840 0.237607 0.031818 
0.047147 -0.013537 0.008677 0.960701 0.276653 -0.022737 
0.006419 -0.045833 0.005202 -0.985281 -0.158129 0.064939 
0.040396 -0.053920 0.008173 0.829847 -0.554246 -0.064532 
0.040038 -0.054535 0.009155 0.825223 -0.564016 -0.029878 
0.014025 -0.007840 0.010955 -0.792221 0.201551 0.575989 
0.006295 -0.044900 0.005556 -0.983000 -0.145836 0.111551 
0.006514 -0.045932 0.005934 -0.975360 -0.149779 0.161984 
0.040842 -0.053303 0.008802 0.850085 -0.524460 -0.047927 
0.006720 -0.046380 0.006608 -0.966890 -0.139542 0.213664 
0.047198 -0.014047 0.010105 0.962482 0.261921 0.070895 
0.047114 -0.013438 0.009312 0.961063 0.269216 0.062297 
0.040637 -0.053633 0.009899 0.837583 -0.546114 0.014606 
0.006573 -0.045453 0.006557 -0.966648 -0.139641 0.214690 
0.038901 -0.056071 0.010891 0.795747 -0.598911 0.089960 
0.047510 -0.015182 0.009892 0.969849 0.236911 0.057158 
0.006173 -0.044393 0.004596 -0.988303 -0.148338 -0.035394 
0.014686 -0.007922 0.011878 -0.781621 0.176337 0.598309 
0.039791 -0.054799 0.011060 0.820136 -0.566508 0.080290 
0.038730 -0.056106 0.011849 0.794544 -0.580752 0.177275 
0.015118 -0.008847 0.012671 -0.754735 0.177537 0.631550 
0.039315 -0.055416 0.011475 0.803946 -0.580650 0.128518 
0.006096 -0.043800 0.004936 -0.992919 -0.113969 0.033523 
0.039014 -0.055576 0.012192 0.779035 -0.558401 0.285119 
0.047379 -0.014869 0.010971 0.962478 0.262870 0.067348 
0.006196 -0.043860 0.005805 -0.979473 -0.114762 0.165718 
0.006090 -0.043477 0.005404 -0.987289 -0.097359 0.125623 
0.039738 -0.054722 0.011837 0.808719 -0.564856 0.164049 
0.006015 -0.042800 0.005204 -0.992874 -0.106700 0.053071 
0.047574 -0.016327 0.012319 0.962486 0.205378 0.177317 
0.006354 -0.044317 0.006305 -0.968897 -0.124218 0.214031 
0.006632 -0.044711 0.007246 -0.958382 -0.112857 0.262235 
0.014390 -0.006852 0.011161 -0.802930 0.179105 0.568528 
0.040297 -0.054077 0.010812 0.833033 -0.550541 0.054417 
0.040729 -0.053429 0.010701 0.842709 -0.535606 0.054477 
0.014030 -0.006205 0.010419 -0.812735 0.187045 0.551794 
0.040298 -0.054004 0.011486 0.822643 -0.557014 0.113991 
0.047351 -0.015116 0.012026 0.963788 0.234472 0.127024 
0.040521 -0.053667 0.011422 0.839447 -0.535456 0.092824 
0.040957 -0.052992 0.011315 0.847610 -0.523436 0.087014 
0.047290 -0.016632 0.013266 0.754556 0.112370 0.646543 
0.047342 -0.016141 0.013015 0.913854 0.186730 0.360558 
0.047301 -0.015435 0.012640 0.946606 0.212166 0.242740 
0.015016 -0.006843 0.012021 -0.786656 0.161708 0.595838 
0.014942 -0.006209 0.011732 -0.798096 0.175140 0.576515 
0.006341 -0.043591 0.006534 -0.963466 -0.080868 0.255330 
0.041814 -0.051641 0.008789 0.866567 -0.496677 -0.048718 
0.006158 -0.043141 0.005934 -0.974611 -0.082900 0.207991 
0.006022 -0.042359 0.005594 -0.982236 -0.087745 0.165871 
0.015203 -0.007651 0.012468 -0.768060 0.154863 0.621371 
0.006136 -0.042244 0.006162 -0.968408 -0.074709 0.237919 
0.006302 -0.042623 0.006661 -0.962826 -0.080836 0.257742 
0.015724 -0.009095 0.013425 -0.713297 0.166129 0.680888 
0.041804 -0.051524 0.007746 0.866796 -0.492071 -0.080817 
0.042253 -0.050738 0.007928 0.876456 -0.476000 -0.072450 
0.046870 -0.013140 0.011117 0.957720 0.279079 0.069909 
0.042811 -0.049528 0.007031 0.887531 -0.452665 -0.085926 
0.042836 -0.049779 0.008739 0.885094 -0.461264 -0.061997 
0.015789 -0.008049 0.013259 -0.731265 0.145817 0.666324 
0.046962 -0.013764 0.012268 0.956908 0.264941 0.118883 
0.042451 -0.050544 0.009331 0.876492 -0.480916 -0.021952 
0.005840 -0.041562 0.003910 -0.993521 -0.099768 -0.054428 
0.005894 -0.042167 0.004341 -0.991717 -0.128410 0.002749 
0.041321 -0.052565 0.009925 0.856529 -0.516087 0.003554 
0.041971 -0.051415 0.009843 0.874990 -0.484141 0.000554 
0.005943 -0.042098 0.005123 -0.989999 -0.097825 0.101650 
0.041685 -0.051921 0.010311 0.864271 -0.501235 0.042427 
0.005806 -0.041229 0.004724 -0.992839 -0.089709 0.078891 
0.015661 -0.007124 0.012910 -0.765813 0.137146 0.628269 
0.041255 -0.052557 0.010862 0.850846 -0.521363 0.065135 
0.046341 -0.010971 0.008264 0.949874 0.312097 -0.018314 
0.041270 -0.052448 0.011447 0.850078 -0.499107 0.168107 
0.005695 -0.040269 0.004172 -0.997136 -0.075484 0.004616 
0.016105 -0.007346 0.013454 -0.722828 0.113914 0.681574 
0.005821 -0.040447 0.002963 -0.994265 -0.078104 -0.073055 
0.045835 -0.009504 0.008216 0.940119 0.339189 -0.033562 
0.045545 -0.008972 0.006737 0.935286 0.346166 -0.073543 
0.041654 -0.051888 0.011013 0.855893 -0.509452 0.088914 
0.041431 -0.052091 0.011625 0.836583 -0.498591 0.227014 
0.042024 -0.051260 0.010909 0.878727 -0.472840 0.065282 
0.005726 -0.038801 0.002980 -0.995741 -0.046324 -0.079715 
0.005741 -0.039682 0.003291 -0.994297 -0.062083 -0.086718 
0.015687 -0.006290 0.012752 -0.785891 0.156639 0.598197 
0.016116 -0.006492 0.013342 -0.748005 0.121532 0.652472 
0.016532 -0.007824 0.013957 -0.643019 0.107745 0.758233 
0.043059 -0.049417 0.009743 0.890349 -0.455042 -0.014699 
0.005596 -0.038847 0.004115 -0.996780 -0.062220 -0.050577 
0.016478 -0.007163 0.013808 -0.676067 0.100344 0.729975 
0.042434 -0.050527 0.010373 0.879237 -0.474741 0.039542 
0.005987 -0.041694 0.005706 -0.979571 -0.062189 0.191241 
0.042352 -0.050562 0.011275 0.881293 -0.450397 0.143058 
0.042602 -0.050132 0.010961 0.877724 -0.467813 0.103688 
0.042866 -0.049763 0.010339 0.878896 -0.475020 0.043568 
0.046472 -0.011403 0.009430 0.950642 0.309143 0.026637 
0.046105 -0.010340 0.009192 0.941356 0.335005 0.040254 
0.005846 -0.040676 0.005271 -0.982743 -0.048899 0.178397 
0.022724 -0.017079 0.012426 0.761108 -0.070780 0.644752 
0.029342 -0.060663 0.013198 -0.079589 0.306341 0.948589 
0.029789 -0.060901 0.013285 -0.047224 0.188670 0.980904 
0.029986 -0.060434 0.013186 -0.089346 0.295588 0.951128 
0.006050 -0.040982 0.006024 -0.969182 -0.036945 0.243558 
0.022905 -0.016310 0.012288 0.781492 -0.080554 0.618694 
0.022678 -0.015659 0.012654 0.764897 -0.094872 0.637128 
0.023146 -0.015595 0.012066 0.822963 -0.092515 0.560511 
0.028457 -0.059548 0.012353 -0.216921 0.607874 0.763829 
0.028587 -0.060133 0.012813 -0.166972 0.541094 0.824220 
0.029297 -0.059678 0.012670 -0.201193 0.548117 0.811843 
0.028477 -0.059172 0.012016 -0.257279 0.694689 0.671725 
0.029131 -0.059104 0.012200 -0.243702 0.630572 0.736877 
0.023000 -0.015106 0.012337 0.780565 -0.095659 0.617712 
0.005715 -0.039316 0.004888 -0.983361 -0.057530 0.172313 
0.029119 -0.060349 0.013032 -0.149356 0.466934 0.871588 
0.029756 -0.060063 0.012998 -0.160409 0.442986 0.882061 
0.023676 -0.014420 0.011196 0.969894 -0.063238 0.235175 
0.030299 -0.060179 0.013138 -0.126211 0.348402 0.928809 
0.045548 -0.008729 0.008844 0.932179 0.359516 0.042325 
0.030267 -0.059525 0.012814 -0.205258 0.509705 0.835506 
0.032077 -0.061629 0.013167 0.261306 -0.361672 0.894937 
0.023654 -0.013654 0.011437 0.956113 -0.050863 0.288549 
0.023532 -0.014396 0.011613 0.908086 -0.083103 0.410455 
0.023245 -0.014457 0.012130 0.823297 -0.080462 0.561878 
0.023304 -0.014991 0.011945 0.873556 -0.098913 0.476566 
0.005594 -0.038680 0.004499 -0.990946 -0.044590 0.126640 
0.045653 -0.009275 0.010048 0.933437 0.352105 0.068682 
0.046279 -0.010901 0.009725 0.939303 0.336083 0.068986 
0.022854 -0.014360 0.012624 0.763140 -0.077812 0.641531 
0.030395 -0.060721 0.013277 -0.027405 0.157285 0.987173 
0.030840 -0.060365 0.013239 -0.056054 0.182090 0.981683 
0.031532 -0.061516 0.013319 0.107124 -0.147819 0.983196 
0.023446 -0.013755 0.011890 0.870046 -0.060764 0.489211 
0.031646 -0.060989 0.013319 -0.008725 0.069826 0.997521 
0.032118 -0.061084 0.013293 0.121263 -0.143576 0.982182 
0.023139 -0.013973 0.012317 0.798103 -0.060646 0.599461 
0.023514 -0.013254 0.011811 0.899768 -0.037895 0.434720 
0.023302 -0.013268 0.012164 0.824674 -0.047365 0.563622 
0.005712 -0.038455 0.005104 -0.977979 -0.037294 0.205342 
0.030795 -0.059657 0.013005 -0.177983 0.410339 0.894396 
0.032552 -0.060475 0.013298 0.003246 0.053159 0.998581 
0.032028 -0.059894 0.013217 -0.055913 0.156237 0.986136 
0.046831 -0.012545 0.008329 0.954965 0.295928 -0.021657 
0.021935 -0.015758 0.013367 0.591569 -0.074896 0.802768 
0.022319 -0.015631 0.013064 0.687733 -0.081305 0.721396 
0.022505 -0.015110 0.012943 0.735146 -0.088953 0.672047 
0.029076 -0.058773 0.011829 -0.298735 0.711621 0.635887 
0.029858 -0.058801 0.012191 -0.260767 0.616129 0.743227 
0.022058 -0.015205 0.013326 0.619754 -0.088728 0.779764 
0.006279 -0.042045 0.006772 -0.964410 -0.067942 0.255534 
0.006141 -0.041481 0.006352 -0.968524 -0.038527 0.245920 
0.022392 -0.014513 0.013134 0.690591 -0.084913 0.718244 
0.030526 -0.058961 0.012523 -0.253403 0.528094 0.810496 
0.020920 -0.015509 0.014045 0.491796 -0.090869 0.865956 
0.021520 -0.015120 0.013725 0.544488 -0.092469 0.833656 
0.030148 -0.058033 0.011559 -0.340640 0.681995 0.647184 
0.029429 -0.058024 0.011138 -0.345757 0.742547 0.573651 
0.046791 -0.012402 0.009316 0.953541 0.297859 0.045165 
0.030681 -0.058352 0.012116 -0.320062 0.611638 0.723505 
0.030907 -0.057682 0.011636 -0.394537 0.622710 0.675702 
0.031248 -0.057987 0.012100 -0.366205 0.564466 0.739778 
0.014557 -0.046056 0.002603 0.735421 0.015375 -0.677436 
0.031331 -0.058452 0.012466 -0.294655 0.508043 0.809365 
0.031535 -0.059477 0.013063 -0.127368 0.294601 0.947094 
0.031432 -0.059158 0.012904 -0.238905 0.450368 0.860287 
0.015672 -0.049088 0.004014 0.894033 0.089758 -0.438918 
0.020783 -0.014287 0.014268 0.479570 -0.095880 0.872250 
0.021272 -0.013718 0.014044 0.533454 -0.093249 0.840674 
0.021991 -0.014267 0.013490 0.593772 -0.085969 0.800028 
0.015968 -0.049409 0.004614 0.927644 0.103872 -0.358729 
0.032091 -0.059201 0.013064 -0.147683 0.287095 0.946449 
0.032761 -0.059549 0.013211 -0.058901 0.142305 0.988069 
0.032743 -0.058974 0.013100 -0.133731 0.248495 0.959357 
0.016167 -0.049383 0.005230 0.953691 0.076589 -0.290875 
0.032055 -0.057979 0.012455 -0.332904 0.495665 0.802179 
0.015372 -0.048130 0.003603 0.867080 0.064234 -0.494010 
0.032374 -0.058490 0.012842 -0.255726 0.406308 0.877222 
0.015882 -0.048408 0.004597 0.931512 0.040264 -0.361476 
0.015713 -0.047946 0.004265 0.892788 0.028815 -0.449554 
0.028671 -0.060706 0.013144 -0.108344 0.414779 0.903449 
0.022440 -0.013727 0.013174 0.708226 -0.076913 0.701784 
0.016321 -0.049404 0.005832 0.978537 0.058395 -0.197626 
0.016412 -0.050133 0.006006 0.980373 0.099028 -0.170475 
0.022950 -0.013506 0.012601 0.772870 -0.068000 0.630910 
0.016196 -0.048336 0.005490 0.959600 0.005783 -0.281309 
0.046896 -0.012963 0.010094 0.955637 0.282699 0.082702 
0.022521 -0.012813 0.013196 0.694191 -0.070773 0.716303 
0.023091 -0.012598 0.012517 0.799595 -0.068881 0.596576 
0.022012 -0.013560 0.013544 0.604301 -0.080459 0.792683 
0.032685 -0.061774 0.012681 0.537900 -0.725992 0.428485 
0.032114 -0.061875 0.012996 0.394732 -0.572407 0.718705 
0.032444 -0.061654 0.012992 0.408502 -0.581169 0.703825 
0.015403 -0.047355 0.003720 0.852693 0.021913 -0.521952 
0.032609 -0.061278 0.013155 0.244500 -0.365973 0.897933 
0.032778 -0.061445 0.012971 0.444446 -0.605512 0.660169 
0.046632 -0.012228 0.010557 0.953692 0.292026 0.072060 
0.046429 -0.011514 0.010342 0.949290 0.305075 0.076012 
0.033120 -0.061007 0.013128 0.359681 -0.472623 0.804523 
0.033215 -0.061361 0.012697 0.540075 -0.695827 0.473438 
0.033919 -0.060609 0.012951 0.509501 -0.622410 0.594150 
0.033654 -0.060512 0.013147 0.288616 -0.303271 0.908145 
0.015320 -0.046359 0.003597 0.841412 -0.019210 -0.540052 
0.032695 -0.060862 0.013265 0.140901 -0.185853 0.972423 
0.015779 -0.046753 0.004389 0.881536 -0.014441 -0.471895 
0.033091 -0.060489 0.013267 0.135142 -0.098533 0.985915 
0.015837 -0.046000 0.004436 0.875738 -0.058714 -0.479202 
0.046670 -0.012644 0.011843 0.954575 0.285964 0.083738 
0.046358 -0.011500 0.011310 0.950297 0.304749 0.063749 
0.023824 -0.013046 0.010856 0.974773 -0.061556 0.214544 
0.034315 -0.060440 0.012745 0.588604 -0.694709 0.413430 
0.023929 -0.012529 0.010499 0.986321 -0.076494 0.146013 
0.034452 -0.060106 0.012959 0.465639 -0.491515 0.735930 
0.033912 -0.060278 0.013123 0.291128 -0.246810 0.924299 
0.015971 -0.047171 0.004827 0.928193 -0.019102 -0.371608 
0.034332 -0.059882 0.013098 0.236460 -0.199816 0.950873 
0.046073 -0.010542 0.010712 0.939511 0.335974 0.066630 
0.024033 -0.011697 0.010231 0.992347 -0.094385 0.079623 
0.016284 -0.047026 0.005657 0.960112 -0.058998 -0.273321 
0.033216 -0.059835 0.013240 0.027308 0.043743 0.998670 
0.023966 -0.011574 0.010719 0.974716 -0.083948 0.207080 
0.023684 -0.012789 0.011441 0.944540 -0.055028 0.323754 
0.033592 -0.060239 0.013204 0.138675 -0.067347 0.988045 
0.034287 -0.059273 0.013183 0.101027 -0.060595 0.993037 
0.033822 -0.059627 0.013223 0.100602 -0.038481 0.994182 
0.016491 -0.049565 0.006817 0.991420 0.058439 -0.116921 
0.016377 -0.048765 0.006268 0.985721 0.017341 -0.167489 
0.033564 -0.059090 0.013194 -0.036290 0.105119 0.993797 
0.033109 -0.058683 0.013079 -0.170591 0.266684 0.948566 
0.033815 -0.058516 0.013129 -0.096719 0.169073 0.980846 
0.023504 -0.012625 0.011875 0.874456 -0.054818 0.481998 
0.016408 -0.047826 0.006365 0.984252 -0.035312 -0.173206 
0.023823 -0.012406 0.011066 0.968384 -0.072825 0.238597 
0.023741 -0.011941 0.011474 0.935500 -0.074357 0.345413 
0.034407 -0.058727 0.013185 0.002959 0.052751 0.998603 
0.016528 -0.048574 0.007412 0.995326 0.005761 -0.096405 
0.023693 -0.011261 0.011722 0.910598 -0.097151 0.401714 
0.023925 -0.011119 0.011092 0.959466 -0.099633 0.263627 
0.034790 -0.060006 0.012748 0.591265 -0.649530 0.478035 
0.035171 -0.059675 0.012723 0.575082 -0.628930 0.523191 
0.035417 -0.059492 0.012683 0.648705 -0.658266 0.381926 
0.034767 -0.059832 0.012942 0.446356 -0.457922 0.768814 
0.024085 -0.011012 0.010376 0.983323 -0.109649 0.145099 
0.035101 -0.059518 0.012932 0.466181 -0.492066 0.735219 
0.034893 -0.059389 0.013067 0.239267 -0.231706 0.942902 
0.016055 -0.046241 0.004904 0.919161 -0.062408 -0.388906 
0.042443 -0.014427 0.011826 -0.864257 -0.255661 0.433240 
0.016373 -0.045985 0.005653 0.949882 -0.102788 -0.295227 
0.035085 -0.058771 0.013135 0.119095 -0.082730 0.989430 
0.041846 -0.013473 0.011139 -0.891977 -0.284815 0.351081 
0.024236 -0.010075 0.010021 0.990492 -0.119075 0.068903 
0.042164 -0.013804 0.011638 -0.867389 -0.271609 0.416971 
0.030289 -0.057448 0.010969 -0.411277 0.735078 0.538991 
0.029562 -0.057487 0.010442 -0.388998 0.785201 0.481808 
0.042469 -0.013797 0.012168 -0.789079 -0.244678 0.563460 
0.030663 -0.057469 0.011267 -0.420300 0.676491 0.604739 
0.016534 -0.046846 0.006735 0.986342 -0.080457 -0.143725 
0.016530 -0.047802 0.007350 0.995383 -0.052445 -0.080383 
0.016664 -0.046626 0.007995 0.992482 -0.108230 -0.057147 
0.030809 -0.057059 0.010886 -0.470279 0.710025 0.524120 
0.016599 -0.046016 0.006624 0.972658 -0.116464 -0.200927 
0.031174 -0.057210 0.011359 -0.444271 0.641155 0.625735 
0.016638 -0.046264 0.007083 0.986015 -0.131485 -0.102404 
0.042935 -0.015252 0.012237 -0.808654 -0.224240 0.543871 
0.030946 -0.056671 0.010457 -0.510870 0.720445 0.469011 
0.024000 -0.010639 0.011026 0.966727 -0.121167 0.225294 
0.012925 -0.043406 0.001330 0.562751 0.032941 -0.825970 
0.023892 -0.010622 0.011406 0.932451 -0.123987 0.339356 
0.031306 -0.056702 0.010866 -0.513503 0.675181 0.529572 
0.042697 -0.014716 0.012098 -0.807238 -0.239821 0.539308 
0.031774 -0.056710 0.011292 -0.473131 0.608307 0.637267 
0.024114 -0.010243 0.010715 0.976400 -0.115897 0.182241 
0.024266 -0.009524 0.010358 0.980973 -0.134081 0.140409 
0.032055 -0.056247 0.011067 -0.537905 0.633425 0.556266 
0.023991 -0.010066 0.011345 0.949033 -0.117921 0.292287 
0.043283 -0.014943 0.012747 -0.707028 -0.208136 0.675863 
0.024077 -0.009691 0.011186 0.961814 -0.122109 0.244955 
0.031937 -0.057384 0.012000 -0.407524 0.564778 0.717600 
0.043666 -0.015407 0.012990 -0.652502 -0.197545 0.731585 
0.014478 -0.044790 0.002553 0.695317 0.008070 -0.718658 
0.023437 -0.011757 0.012118 0.860522 -0.080454 0.503019 
0.014631 -0.045461 0.002690 0.736355 0.011349 -0.676500 
0.014342 -0.044132 0.002413 0.662418 -0.008056 -0.749091 
0.014739 -0.044219 0.002816 0.725908 -0.031028 -0.687091 
0.043024 -0.014508 0.012604 -0.750319 -0.222587 0.622476 
0.012385 -0.043256 0.000986 0.510931 0.049266 -0.858209 
0.032729 -0.057577 0.012505 -0.337374 0.458302 0.822276 
0.043750 -0.014813 0.013221 -0.608043 -0.200015 0.768295 
0.033383 -0.057828 0.012850 -0.259052 0.366698 0.893546 
0.012257 -0.042355 0.000952 0.486874 0.036889 -0.872693 
0.023069 -0.011930 0.012641 0.794311 -0.079679 0.602264 
0.032486 -0.056587 0.011696 -0.470392 0.564131 0.678593 
0.023368 -0.011244 0.012317 0.827294 -0.100038 0.552791 
0.023621 -0.010891 0.011975 0.891336 -0.121152 0.436854 
0.032701 -0.057011 0.012136 -0.395626 0.507027 0.765770 
0.013623 -0.043684 0.001814 0.610945 0.015153 -0.791528 
0.042957 -0.013453 0.012903 -0.716025 -0.224465 0.661002 
0.012818 -0.042546 0.001289 0.538554 0.020157 -0.842350 
0.033096 -0.056493 0.012015 -0.442871 0.494912 0.747615 
0.022616 -0.011824 0.013192 0.706090 -0.084589 0.703051 
0.033409 -0.057150 0.012560 -0.347846 0.419632 0.838399 
0.042530 -0.013005 0.012588 -0.745144 -0.252302 0.617336 
0.043265 -0.014246 0.012943 -0.672571 -0.220634 0.706378 
0.012103 -0.041127 0.000913 0.469565 0.021338 -0.882640 
0.013080 -0.041416 0.001469 0.524426 0.003586 -0.851449 
0.013437 -0.043011 0.001686 0.581111 0.006940 -0.813795 
0.032326 -0.055521 0.010444 -0.580371 0.643667 0.498861 
0.022953 -0.011367 0.012841 0.773117 -0.088213 0.628099 
0.023139 -0.010719 0.012729 0.779933 -0.125768 0.613096 
0.022542 -0.010859 0.013405 0.690740 -0.121196 0.712875 
0.043644 -0.014210 0.013289 -0.559682 -0.193104 0.805895 
0.013533 -0.042112 0.001759 0.563980 0.003563 -0.825781 
0.044042 -0.014624 0.013417 -0.385710 -0.154099 0.909660 
0.043372 -0.013662 0.013227 -0.598457 -0.200317 0.775708 
0.014089 -0.041515 0.002144 0.584590 -0.028597 -0.810824 
0.043787 -0.013799 0.013449 -0.397151 -0.147109 0.905886 
0.014044 -0.043417 0.002153 0.625118 -0.009553 -0.780472 
0.041587 -0.012666 0.011163 -0.901405 -0.294283 0.317594 
0.032705 -0.055703 0.011089 -0.547066 0.597380 0.586392 
0.033093 -0.055807 0.011493 -0.498711 0.537507 0.679981 
0.023781 -0.010254 0.011813 0.895712 -0.114982 0.429511 
0.014488 -0.043598 0.002526 0.678399 -0.029806 -0.734089 
0.023533 -0.010584 0.012197 0.840205 -0.114976 0.529939 
0.033298 -0.055297 0.011251 -0.555542 0.555572 0.618639 
0.014887 -0.043230 0.002902 0.725242 -0.053136 -0.686440 
0.033370 -0.054799 0.010843 -0.619009 0.576343 0.533532 
0.014537 -0.042784 0.002544 0.661736 -0.028760 -0.749185 
0.042007 -0.012913 0.011888 -0.834461 -0.279072 0.475177 
0.033722 -0.054847 0.011229 -0.562430 0.524718 0.639018 
0.023875 -0.009743 0.011757 0.902979 -0.120807 0.412353 
0.041033 -0.011779 0.010258 -0.923294 -0.313349 0.222128 
0.014059 -0.042328 0.002149 0.611369 -0.016692 -0.791169 
0.023431 -0.009982 0.012505 0.822215 -0.126617 0.554915 
0.041330 -0.011788 0.011230 -0.892574 -0.313751 0.323839 
0.033833 -0.055635 0.011899 -0.492700 0.498859 0.713012 
0.033917 -0.056069 0.012212 -0.400001 0.430693 0.809013 
0.022900 -0.009810 0.013214 0.736602 -0.129099 0.663890 
0.014692 -0.041816 0.002634 0.654140 -0.052755 -0.754531 
0.015239 -0.042674 0.003211 0.726334 -0.074400 -0.683303 
0.034393 -0.054845 0.011755 -0.523301 0.472921 0.708874 
0.014982 -0.045802 0.003104 0.793898 -0.013154 -0.607909 
0.023188 -0.009066 0.013026 0.775746 -0.126264 0.618285 
0.033745 -0.057996 0.012995 -0.174499 0.261939 0.949178 
0.014942 -0.044941 0.003052 0.761281 -0.013102 -0.648290 
0.023606 -0.009326 0.012379 0.844938 -0.131807 0.518370 
0.023899 -0.009109 0.011881 0.904626 -0.132877 0.404964 
0.023862 -0.008628 0.012130 0.883012 -0.139870 0.448025 
0.034452 -0.057992 0.013110 -0.092579 0.155350 0.983512 
0.035114 -0.058214 0.013145 0.019029 0.023725 0.999537 
0.042101 -0.012148 0.012429 -0.766380 -0.280639 0.577843 
0.015502 -0.044922 0.003761 0.808784 -0.050216 -0.585959 
0.034086 -0.057554 0.012938 -0.238615 0.307136 0.921266 
0.015580 -0.045559 0.003933 0.838813 -0.050871 -0.542037 
0.034418 -0.056685 0.012738 -0.303968 0.346092 0.887594 
0.014992 -0.013359 0.013595 -0.651966 0.135867 0.745977 
0.041606 -0.011770 0.011877 -0.841287 -0.300323 0.449491 
0.034694 -0.057440 0.013028 -0.183182 0.242820 0.952619 
0.035172 -0.057506 0.013099 -0.083685 0.123145 0.988854 
0.041179 -0.010875 0.011705 -0.863027 -0.332652 0.380166 
0.015901 -0.045058 0.004408 0.869482 -0.082766 -0.486981 
0.035280 -0.056816 0.012993 -0.201644 0.224249 0.953442 
0.015245 -0.044064 0.003365 0.761331 -0.047931 -0.646589 
0.035732 -0.059150 0.012683 0.677523 -0.624138 0.389120 
0.015594 -0.013464 0.014097 -0.560182 0.106083 0.821549 
0.035523 -0.059156 0.012913 0.478517 -0.475251 0.738348 
0.035942 -0.058761 0.012871 0.605630 -0.525962 0.597140 
0.035456 -0.058910 0.013047 0.287038 -0.275766 0.917367 
0.035841 -0.058572 0.013027 0.286089 -0.266838 0.920299 
0.016095 -0.013702 0.014389 -0.367976 0.058992 0.927962 
0.015963 -0.044430 0.004388 0.850174 -0.097891 -0.517322 
0.036232 -0.058119 0.013034 0.331106 -0.275753 0.902402 
0.015662 -0.044090 0.003889 0.804871 -0.074912 -0.588703 
0.036675 -0.058210 0.012504 0.680505 -0.619605 0.391156 
0.036307 -0.058396 0.012800 0.635631 -0.557834 0.533662 
0.036718 -0.057970 0.012740 0.633917 -0.555845 0.537759 
0.015592 -0.012427 0.013945 -0.605527 0.123365 0.786205 
0.036598 -0.057806 0.012973 0.496600 -0.406431 0.766944 
0.015545 -0.043564 0.003671 0.771257 -0.075142 -0.632073 
0.035444 -0.058638 0.013094 0.125840 -0.105553 0.986419 
0.035818 -0.058113 0.013115 0.104492 -0.090583 0.990392 
0.042609 -0.012465 0.012881 -0.688445 -0.260889 0.676742 
0.016150 -0.012777 0.014344 -0.445970 0.082522 0.891236 
0.035441 -0.057804 0.013136 -0.003244 0.029494 0.999560 
0.035976 -0.057701 0.013126 0.049854 -0.041001 0.997915 
0.041790 -0.011318 0.012440 -0.778437 -0.299692 0.551561 
0.035478 -0.057264 0.013101 -0.070611 0.084660 0.993905 
0.036359 -0.057122 0.013139 0.013918 0.001371 0.999902 
0.036543 -0.057486 0.013086 0.217363 -0.175620 0.960162 
0.016227 -0.044622 0.004931 0.896322 -0.116846 -0.427731 
0.016663 -0.013297 0.014542 -0.246072 0.037478 0.968527 
0.016151 -0.045582 0.005008 0.907295 -0.090041 -0.410742 
0.017509 -0.013557 0.014715 -0.152689 0.014637 0.988166 
0.042295 -0.011470 0.012951 -0.689661 -0.267307 0.672990 
0.034869 -0.055683 0.012480 -0.378960 0.381503 0.843116 
0.016464 -0.045064 0.005623 0.931849 -0.124688 -0.340750 
0.018385 -0.014132 0.014818 -0.079947 -0.002006 0.996797 
0.041921 -0.010813 0.012840 -0.705426 -0.283445 0.649641 
0.035145 -0.056126 0.012768 -0.295410 0.301181 0.906655 
0.042524 -0.011015 0.013305 -0.584795 -0.236180 0.776037 
0.042831 -0.011903 0.013284 -0.600216 -0.227591 0.766774 
0.034516 -0.055329 0.012137 -0.442305 0.428567 0.787843 
0.016590 -0.044114 0.005565 0.916951 -0.146938 -0.370958 
0.016272 -0.043825 0.004808 0.878571 -0.128392 -0.460031 
0.034947 -0.054746 0.012068 -0.474008 0.424104 0.771656 
0.016722 -0.044848 0.006402 0.964353 -0.143287 -0.222469 
0.035311 -0.055124 0.012444 -0.394723 0.358291 0.846062 
0.043138 -0.012719 0.013285 -0.600074 -0.209165 0.772115 
0.035907 -0.055366 0.012776 -0.307455 0.283590 0.908322 
0.018515 -0.013361 0.014835 -0.083625 -0.000594 0.996497 
0.037261 -0.057506 0.012585 0.643824 -0.587565 0.490162 
0.017805 -0.012429 0.014741 -0.137053 0.009387 0.990519 
0.016713 -0.044276 0.006024 0.950059 -0.159303 -0.268348 
0.036946 -0.057499 0.012915 0.507121 -0.427198 0.748552 
0.018902 -0.012053 0.014863 -0.058703 -0.012252 0.998200 
0.037210 -0.057182 0.012916 0.500778 -0.419537 0.757106 
0.037457 -0.057161 0.012716 0.593204 -0.543748 0.593673 
0.043607 -0.013282 0.013445 -0.446200 -0.154789 0.881446 
0.043998 -0.013449 0.013567 -0.255528 -0.115822 0.959839 
0.035956 -0.056714 0.013082 -0.100466 0.126184 0.986906 
0.043727 -0.012776 0.013585 -0.295449 -0.123651 0.947323 
0.035913 -0.056046 0.012957 -0.200955 0.206021 0.957691 
0.036827 -0.056692 0.013124 0.045572 0.008294 0.998927 
0.016012 -0.043555 0.004306 0.831352 -0.100648 -0.546556 
0.036977 -0.057062 0.013062 0.246633 -0.184942 0.951298 
0.016015 -0.042693 0.004157 0.794702 -0.103834 -0.598053 
0.037350 -0.056700 0.013018 0.276205 -0.159604 0.947754 
0.036660 -0.056138 0.013078 -0.089197 0.118647 0.988922 
0.016509 -0.042580 0.004899 0.855797 -0.134208 -0.499599 
0.043210 -0.012137 0.013465 -0.408983 -0.164818 0.897534 
0.036593 -0.055320 0.012951 -0.190241 0.182708 0.964586 
0.036310 -0.054935 0.012779 -0.297654 0.252325 0.920725 
0.015817 -0.041467 0.003698 0.758822 -0.110336 -0.641884 
0.016419 -0.012488 0.014433 -0.324707 0.056349 0.944135 
0.037370 -0.055935 0.013084 0.077479 0.003383 0.996988 
0.037626 -0.056302 0.012998 0.310311 -0.185412 0.932378 
0.016076 -0.012175 0.014237 -0.496560 0.100495 0.862165 
0.043783 -0.012235 0.013652 -0.226682 -0.105512 0.968237 
0.044354 -0.012488 0.013717 -0.084140 -0.060358 0.994624 
0.037039 -0.055476 0.013025 -0.089982 0.116621 0.989092 
0.016419 -0.041642 0.004500 0.815591 -0.140646 -0.561276 
0.044058 -0.011773 0.013734 -0.083933 -0.059833 0.994673 
0.044703 -0.011903 0.013750 -0.020404 -0.027180 0.999422 
0.017136 -0.012560 0.014624 -0.208016 0.020495 0.977911 
0.016757 -0.012119 0.014523 -0.286492 0.035485 0.957425 
