-0.049291 0.039294 0.048073 0.052560 0.239803 0.969398 
-0.064770 0.041222 0.044670 0.041582 0.996891 0.066925 
-0.067033 0.041296 0.045319 0.067876 0.983813 0.165844 
-0.003225 0.040578 0.041671 0.018842 0.998590 0.049620 
-0.005975 0.040724 0.039965 0.014691 0.998267 0.056993 
-0.005213 0.040572 0.042930 0.020251 0.999126 0.036571 
-0.056683 0.041579 0.002896 0.047141 0.998311 0.033963 
-0.053332 0.041416 0.002364 0.037863 0.998540 0.038537 
-0.056115 0.041673 0.000172 0.048267 0.998057 0.039413 
-0.052408 0.040877 0.046081 0.007397 0.942561 0.333952 
-0.053436 0.041045 0.044957 -0.024128 0.999495 -0.020701 
-0.053954 0.040896 0.046044 -0.062964 0.952604 0.297624 
-0.052980 0.042355 -0.018509 0.032101 0.998480 0.044792 
-0.052791 0.042219 -0.016173 0.037003 0.998216 0.046866 
-0.051447 0.040989 0.044866 0.012297 0.999654 -0.023256 
-0.054503 0.040396 0.046806 0.021830 0.919345 0.392847 
0.008609 0.037109 0.048356 -0.036405 0.051764 0.997996 
0.008031 0.038990 0.047924 -0.001581 0.509037 0.860743 
0.006311 0.038407 0.048280 0.014167 0.279661 0.959994 
-0.023935 0.041310 0.014755 -0.028664 0.999308 0.023691 
-0.021453 0.041284 0.018153 -0.028985 0.999253 0.025548 
-0.021834 0.041318 0.013786 -0.034087 0.999106 0.024994 
-0.048435 0.040145 0.046915 0.017695 0.862116 0.506402 
-0.049415 0.039976 0.047624 0.020201 0.815659 0.578180 
-0.009932 0.040817 0.038444 0.005011 0.998432 0.055755 
-0.009862 0.040940 0.037238 -0.005419 0.999955 -0.007830 
-0.011138 0.040891 0.037832 0.008131 0.999417 0.033152 
-0.047636 0.040667 0.046321 0.005247 0.891092 0.453793 
-0.048014 0.040962 0.045222 0.003851 0.999261 0.038256 
-0.005979 0.018209 0.047837 -0.011557 -0.044315 0.998951 
-0.002806 0.017896 0.047995 -0.020543 -0.049739 0.998551 
-0.005049 0.021566 0.047933 -0.029477 -0.029291 0.999136 
0.003839 0.030661 0.048263 -0.027751 0.018668 0.999441 
0.005456 0.029809 0.048352 0.015590 0.022576 0.999624 
0.006135 0.032890 0.048221 -0.011825 0.015097 0.999816 
0.028535 0.018502 0.048527 -0.010535 -0.025578 0.999617 
-0.037478 0.040453 0.025549 -0.071130 0.994799 -0.072912 
-0.037344 0.040762 0.026303 -0.028284 0.980406 -0.194949 
-0.035882 0.040579 0.025730 -0.023402 0.997846 -0.061282 
-0.046702 0.040293 0.046800 -0.022494 0.863402 0.504015 
-0.011847 0.042982 -0.021718 0.139135 0.989145 -0.047270 
-0.010562 0.042693 -0.020394 0.282382 0.958011 -0.049757 
-0.010780 0.042581 -0.023271 0.133476 0.990854 -0.019818 
-0.036853 0.041044 0.013351 -0.023597 0.999447 0.023434 
-0.037081 0.041063 0.011591 0.031801 0.996032 0.083123 
-0.038349 0.040920 0.012906 -0.022242 0.996627 0.078996 
-0.010200 0.040573 0.045713 0.015048 0.995390 0.094723 
-0.011417 0.040591 0.045657 0.019382 0.998383 0.053448 
-0.010992 0.040325 0.046463 0.018264 0.960761 0.276777 
0.021484 0.015290 0.048212 -0.015302 -0.019047 0.999701 
0.023417 0.017530 0.048383 -0.020515 -0.043051 0.998862 
0.020299 0.016451 0.048314 -0.022507 -0.051948 0.998396 
0.005291 0.026808 0.048371 -0.002065 -0.011884 0.999927 
0.006788 0.029320 0.048248 -0.026570 0.011620 0.999579 
0.007277 0.025919 0.048290 -0.078142 0.001533 0.996941 
0.008947 0.028268 0.048504 -0.020920 0.022962 0.999517 
-0.051810 0.040612 0.039656 0.018349 0.998559 -0.050436 
-0.052504 0.040854 0.043031 -0.009241 0.996589 -0.082012 
-0.049294 0.040802 0.042814 0.013067 0.997372 -0.071257 
-0.015617 0.042560 -0.031564 0.003043 0.999190 -0.040120 
-0.016770 0.042664 -0.033813 0.006431 0.999864 0.015174 
-0.017300 0.042611 -0.030695 -0.037329 0.999262 -0.009055 
-0.055144 0.041031 0.016952 0.076257 0.996578 0.031908 
-0.054228 0.041086 0.015551 0.047651 0.998319 0.032982 
-0.056121 0.041202 0.015905 0.066116 0.997431 0.027560 
-0.070581 0.042401 0.014282 0.113436 0.993039 0.031711 
-0.071120 0.042590 0.012357 0.118664 0.992359 0.033800 
-0.072344 0.042674 0.013384 0.099906 0.994606 0.027881 
-0.069956 0.042428 0.012230 0.116956 0.992725 0.028617 
-0.067950 0.042133 0.015253 0.093381 0.995383 0.022188 
-0.018385 0.040870 0.037916 0.002548 0.999918 0.012581 
-0.017329 0.040796 0.039990 -0.004973 0.998873 0.047196 
-0.016991 0.040948 0.037670 -0.025015 0.999561 -0.015898 
-0.060120 0.041148 0.030110 0.085656 0.996237 0.013222 
-0.061625 0.041322 0.026810 0.087669 0.995861 0.023963 
-0.062139 0.041290 0.030581 0.090406 0.995828 0.012410 
-0.031957 0.040839 0.018004 0.000990 0.999995 -0.002845 
-0.033775 0.040934 0.018205 -0.000347 0.987639 -0.156742 
-0.032079 0.041039 0.018756 0.072492 0.974232 -0.213584 
-0.034463 0.041095 0.014332 -0.036135 0.999048 -0.024454 
-0.036541 0.040851 0.014983 -0.033644 0.997667 0.059401 
-0.033122 0.040952 0.015969 -0.044530 0.996095 0.076237 
-0.012688 0.040550 0.045555 -0.008295 0.996883 0.078455 
-0.014081 0.040645 0.045739 0.041313 0.991247 0.125393 
-0.013070 0.040225 0.046896 -0.027261 0.861973 0.506221 
0.000210 0.025910 0.048153 0.010638 -0.007469 0.999916 
0.000018 0.028114 0.048065 0.034986 -0.021565 0.999155 
-0.001227 0.028827 0.048266 0.046795 -0.027171 0.998535 
-0.007968 0.040683 0.040851 0.004954 0.999087 0.042443 
-0.006754 0.040687 0.042161 0.025305 0.998952 0.038132 
-0.011185 0.033543 0.047962 0.005493 0.013091 0.999899 
-0.012974 0.034077 0.048062 0.066752 -0.037357 0.997070 
-0.011495 0.031136 0.047966 0.002512 0.005538 0.999982 
0.011562 0.041567 0.019596 0.039964 0.997895 0.051077 
0.013818 0.041511 0.019055 0.036465 0.998392 0.043410 
0.013101 0.041388 0.017953 0.005730 0.999936 0.009726 
0.014341 0.041439 0.011033 0.001639 0.999889 -0.014813 
0.014543 0.041750 0.011631 0.059097 0.970528 -0.233628 
0.015729 0.041508 0.011820 0.029937 0.999139 0.028729 
0.016467 0.034383 0.048489 0.038175 0.010350 0.999217 
0.016953 0.037148 0.048506 0.020327 0.056038 0.998222 
0.013052 0.035461 0.048553 -0.018054 -0.015685 0.999714 
0.015279 0.006623 0.047515 -0.016857 -0.040443 0.999040 
0.017086 0.005203 0.047491 -0.022947 -0.085377 0.996084 
0.016862 0.008191 0.047684 -0.018052 -0.069509 0.997418 
0.017784 0.041412 0.013075 0.038735 0.998926 0.025417 
0.019150 0.041637 0.012115 -0.041858 0.998559 0.033595 
0.017950 0.041435 0.011543 0.030711 0.998557 0.044044 
0.005477 0.041522 0.016098 -0.093084 0.994059 0.056419 
0.005968 0.041770 0.017564 -0.099760 0.994823 0.019392 
0.006640 0.041784 0.016482 -0.111360 0.993621 0.017775 
-0.022930 0.040889 0.033395 -0.011751 0.999693 0.021812 
-0.020575 0.040923 0.034115 -0.032179 0.999411 0.011893 
-0.021239 0.040890 0.032833 -0.030067 0.999292 0.022638 
0.006306 0.041838 0.015283 -0.095939 0.995177 0.020470 
0.007922 0.041891 0.015828 0.036870 0.999290 -0.007767 
-0.024490 0.040615 0.044946 0.019764 0.999764 -0.009004 
-0.026806 0.040795 0.045507 -0.000222 0.999422 0.033988 
-0.025819 0.040742 0.045814 0.024967 0.997858 0.060464 
-0.016048 0.042654 -0.036657 0.012876 0.999913 0.002821 
-0.018292 0.042692 -0.036549 0.008260 0.999931 0.008301 
0.003591 0.040015 0.046829 -0.011694 0.899091 0.437606 
0.005041 0.040083 0.046631 0.076102 0.945305 0.317187 
0.004295 0.040265 0.045561 0.001929 0.993792 0.111237 
-0.005302 0.040802 0.035255 0.002062 0.989359 0.145484 
-0.006623 0.041428 0.033554 -0.007082 0.981094 0.193402 
-0.007389 0.040822 0.035371 -0.002312 0.993582 0.113090 
0.011637 0.041760 0.016371 -0.002659 0.999274 0.038008 
0.009524 0.041784 0.016921 0.065441 0.992687 0.101444 
0.011118 0.041435 0.017620 0.055218 0.985260 0.161905 
-0.041479 0.039906 0.047497 0.043451 0.808950 0.586269 
-0.042065 0.040107 0.047052 0.039559 0.842460 0.537305 
-0.042456 0.039980 0.047511 -0.032934 0.779812 0.625147 
-0.040670 0.040004 0.047106 0.029348 0.849305 0.527086 
-0.040662 0.040603 0.046393 0.065522 0.904573 0.421253 
-0.005217 0.038780 0.048375 -0.061766 0.383202 0.921597 
-0.003123 0.038449 0.048527 0.008774 0.246255 0.969166 
-0.003703 0.039147 0.048215 0.031940 0.708291 0.705198 
0.021269 0.041443 0.017662 -0.000424 0.999874 -0.015868 
0.019522 0.041268 0.018387 -0.045691 0.998919 -0.008562 
0.020908 0.041479 0.019608 -0.002295 0.998781 0.049313 
0.021336 0.041471 0.013809 0.009901 0.999920 0.007885 
0.021302 0.041419 0.015763 0.005023 0.999982 0.003203 
0.018024 0.041473 0.015739 0.067983 0.997048 0.035674 
0.017792 0.041270 0.016626 0.034398 0.998801 0.034848 
0.019372 0.041265 0.015982 -0.004263 0.999477 0.032069 
0.013873 0.041629 0.010111 0.016021 0.998972 0.042406 
0.012838 0.041601 0.009264 0.023935 0.998778 0.043229 
0.011604 0.041708 0.010280 0.029433 0.999556 0.004666 
-0.037304 0.040517 0.036618 -0.020159 0.999750 -0.009691 
-0.036675 0.040547 0.034333 -0.047448 0.998759 -0.015166 
-0.039435 0.040508 0.035137 -0.043207 0.997715 -0.051948 
-0.048901 0.041709 -0.007911 -0.005750 0.997740 0.066945 
-0.051677 0.041804 -0.007124 0.021266 0.999109 0.036454 
-0.048609 0.041688 -0.005195 0.016682 0.999409 0.030054 
0.018916 0.041475 0.019162 -0.038130 0.989367 -0.140357 
0.018322 0.041203 0.018657 0.009177 0.999080 -0.041883 
-0.006033 0.040571 0.041655 0.055852 0.997756 0.036937 
0.018683 0.041420 0.020012 -0.008577 0.991227 0.131895 
0.017265 0.041326 0.019275 0.008986 0.999597 -0.026942 
0.017581 0.041384 0.020546 0.104364 0.994508 0.007871 
0.007814 0.041831 0.017537 0.034648 0.996444 0.076808 
0.009612 0.041672 0.015513 0.085527 0.990750 -0.105352 
0.008428 0.041736 0.014632 0.098370 0.993903 -0.049798 
0.017121 0.041358 0.015035 0.017892 0.999840 -0.000830 
0.016394 0.041541 0.015969 0.063583 0.995783 0.066131 
0.009396 0.041448 0.018456 0.083942 0.995699 0.039203 
0.018196 0.041525 0.014091 0.072584 0.996946 0.028802 
0.016891 0.041537 0.014145 -0.006610 0.998906 0.046284 
0.015451 0.041701 0.010494 -0.041231 0.997187 0.062593 
0.009596 0.041557 0.019626 0.002553 0.999125 0.041755 
0.010292 0.041643 0.019068 -0.002202 0.995017 -0.099685 
0.005416 0.036134 0.048252 0.016110 -0.026977 0.999506 
-0.008499 0.040847 0.038380 0.010792 0.998920 0.045194 
0.011813 0.041599 0.012363 -0.013108 0.999358 -0.033344 
0.013277 0.041803 0.012877 0.033441 0.998369 0.046276 
0.013343 0.041621 0.011688 -0.015305 0.993180 -0.115582 
0.007188 0.041860 0.014015 -0.002964 0.999939 -0.010660 
0.012263 0.041518 0.017210 -0.023038 0.968164 0.249253 
-0.015105 0.042675 -0.038803 0.018066 0.999600 0.021777 
-0.016466 0.042674 -0.038795 0.013799 0.999676 0.021373 
0.011065 0.041456 0.018577 0.019179 0.993202 -0.114810 
0.008715 0.041821 0.011802 0.052901 0.998277 0.025398 
0.010090 0.041590 0.013079 0.003653 0.999990 0.002651 
0.010489 0.041766 0.011818 0.046635 0.998408 0.031730 
0.013808 0.041731 0.015807 0.043368 0.997871 -0.048708 
0.013323 0.041671 0.016908 0.063571 0.979916 0.189008 
0.007341 0.035333 0.048137 -0.042063 -0.007370 0.999088 
0.009202 0.033915 0.048395 -0.034732 -0.009569 0.999351 
-0.001578 0.040585 0.041607 0.000628 0.998322 0.057910 
-0.001090 0.040457 0.043187 0.015753 0.998545 0.051582 
-0.000230 0.040615 0.041013 0.005803 0.998071 0.061813 
-0.029725 0.042819 -0.039049 0.003515 0.999590 0.028415 
-0.032353 0.042961 -0.040263 0.013210 0.999752 -0.017939 
-0.032376 0.042811 -0.037693 0.009581 0.999362 0.034402 
-0.037950 0.040674 0.041058 -0.003654 0.999483 -0.031944 
-0.039090 0.040786 0.042948 0.006014 0.999435 -0.033082 
-0.037694 0.040693 0.043295 0.026615 0.999361 -0.023850 
0.009834 0.041373 0.020971 0.053523 0.998530 0.008536 
0.008060 0.031326 0.048351 -0.026445 0.015468 0.999531 
0.019523 0.041372 0.017067 -0.026279 0.999381 -0.023380 
0.005435 0.041870 0.012452 -0.038532 0.998814 0.029751 
0.005232 0.041565 0.014151 -0.077284 0.996683 0.025481 
-0.039621 0.039781 0.047566 0.012693 0.693205 0.720629 
-0.063725 0.041797 0.011726 0.090785 0.995765 0.014517 
-0.065670 0.042030 0.012731 0.094016 0.995337 0.021573 
-0.063389 0.041743 0.014528 0.083772 0.996272 0.020581 
0.004655 0.039576 0.047458 0.013823 0.736727 0.676049 
0.006394 0.039610 0.047272 0.011673 0.825005 0.565005 
-0.059061 0.041512 0.008287 0.067687 0.997555 0.017384 
-0.060598 0.041593 0.011029 0.070399 0.997277 0.021981 
-0.058816 0.041541 0.009302 0.056772 0.998384 0.002478 
0.007055 0.041715 0.019644 0.007227 0.998962 0.044984 
0.015446 0.041558 0.009354 0.007776 0.999859 -0.014912 
0.016833 0.041615 0.012513 0.044611 0.998997 0.003919 
0.015798 0.041401 0.014555 0.007440 0.998882 0.046691 
0.014031 0.041452 0.014279 0.062929 0.997769 0.022295 
0.015344 0.041525 0.015240 0.070844 0.986932 -0.144726 
0.009459 0.041671 0.014299 0.023182 0.999638 0.013625 
0.008685 0.041674 0.013546 0.096167 0.994974 0.027894 
-0.019522 0.040945 0.036074 0.010975 0.999665 0.023449 
-0.016913 0.040741 0.035850 0.021300 0.999739 0.008237 
0.020368 0.013438 0.048084 -0.059859 -0.083057 0.994745 
0.018228 0.013897 0.048070 -0.026347 -0.060931 0.997794 
0.020244 0.010696 0.047946 -0.036641 -0.070619 0.996830 
0.010046 0.041520 0.014796 0.015207 0.993499 0.112816 
-0.008410 0.040616 0.043047 -0.001874 0.998974 0.045250 
-0.006508 0.040525 0.044543 0.018060 0.997184 0.072781 
0.020196 0.021965 0.048498 -0.035851 -0.019521 0.999166 
0.020483 0.019068 0.048407 -0.024512 -0.050257 0.998435 
0.022484 0.020580 0.048611 -0.009043 -0.049313 0.998742 
-0.083090 0.042717 0.035741 0.080142 0.994563 0.066501 
-0.055494 0.041847 -0.005627 0.040406 0.998482 0.037421 
0.020654 0.003585 0.047266 -0.052448 -0.453803 0.889557 
0.021909 0.004514 0.047588 -0.019888 -0.153131 0.988006 
0.019392 0.004690 0.047516 -0.022151 -0.151844 0.988156 
-0.051422 0.041934 -0.010396 -0.005447 0.999128 0.041389 
-0.052694 0.041911 -0.011249 0.017553 0.998808 0.045557 
-0.052722 0.041940 -0.009623 0.016711 0.999232 0.035436 
0.022837 0.041359 0.015528 0.053939 0.998535 0.004310 
0.011723 0.041658 0.011235 0.032190 0.999468 0.005170 
0.015436 0.041462 0.018393 0.017365 0.999843 0.003461 
0.015261 0.041320 0.019646 -0.000749 0.998666 0.051625 
0.010973 0.041542 0.015231 0.022196 0.998622 -0.047546 
-0.009876 0.033231 0.048056 -0.103465 0.045605 0.993587 
-0.009718 0.034919 0.047906 -0.069833 -0.048024 0.996402 
0.012240 0.041472 0.014829 0.020983 0.998962 0.040423 
0.015363 0.041342 0.017070 0.050230 0.995807 0.076454 
-0.026752 0.042868 -0.039805 0.018181 0.999792 -0.009245 
-0.028937 0.042947 -0.040774 0.002806 0.999993 -0.002655 
0.023653 0.012248 0.048129 -0.047516 -0.068199 0.996540 
0.022703 0.011074 0.048033 -0.025021 -0.083204 0.996218 
0.024186 0.011255 0.048126 -0.025184 -0.100799 0.994588 
0.010708 0.041792 0.014310 0.001761 0.995997 0.089367 
0.012239 0.041342 0.021460 0.038061 0.998867 -0.028578 
-0.054052 0.041433 0.004562 0.040827 0.998355 0.040266 
0.014560 0.041506 0.012948 0.110354 0.989505 0.093278 
0.015865 0.041521 0.013451 -0.005793 0.999119 0.041576 
0.009932 0.031171 0.048235 0.008914 0.019498 0.999770 
-0.038167 0.041062 0.008518 -0.019511 0.999771 -0.008841 
-0.037081 0.041107 0.008574 -0.033369 0.996554 -0.075932 
-0.037482 0.041202 0.007699 0.001224 0.998910 0.046656 
0.015034 0.041249 0.021501 -0.015617 0.999878 -0.000469 
0.016340 0.041496 0.020393 -0.058837 0.995765 -0.070642 
-0.004074 0.034789 0.048615 -0.027185 -0.070015 0.997175 
-0.006227 0.036775 0.048539 -0.080937 0.018459 0.996548 
-0.007527 0.033681 0.048352 -0.080491 -0.015093 0.996641 
0.013641 0.041332 0.020113 0.054727 0.994770 0.086241 
-0.013223 0.042620 -0.036276 0.018764 0.999814 -0.004514 
-0.011827 0.042592 -0.038465 0.014160 0.999857 0.009244 
-0.013604 0.042599 -0.039012 0.031385 0.999384 0.015701 
0.018838 0.003232 0.046981 0.007756 -0.639368 0.768862 
-0.000312 0.040355 0.045660 -0.012580 0.993030 0.117192 
0.001571 0.040432 0.043060 0.016522 0.997685 0.065965 
-0.001563 0.040673 0.039463 0.007355 0.997807 0.065774 
-0.052032 0.041727 -0.003989 0.024242 0.998358 0.051908 
-0.022404 0.040736 0.045774 0.010495 0.997320 0.072404 
-0.020600 0.040574 0.046120 0.036352 0.971796 0.233002 
-0.020672 0.040652 0.045158 0.004372 0.999990 -0.000145 
0.010372 0.041629 0.011077 0.055416 0.998394 0.011796 
0.011939 0.041774 0.013571 0.021295 0.998672 0.046917 
-0.009623 0.042578 -0.029075 -0.019548 0.999793 -0.005717 
-0.007993 0.042799 -0.027963 -0.067898 0.997449 -0.022050 
-0.007612 0.042567 -0.030662 -0.006441 0.998907 -0.046300 
-0.004374 0.039460 0.047568 0.015573 0.784127 0.620405 
0.012123 0.041623 0.015612 -0.026112 0.980744 -0.193545 
-0.004947 0.040464 0.045397 0.002155 0.996363 0.085185 
-0.003059 0.040457 0.044939 0.034045 0.995768 0.085360 
-0.057914 0.040489 0.046916 -0.019515 0.872999 0.487332 
-0.056522 0.040184 0.047713 -0.036140 0.755735 0.653879 
-0.025736 0.042698 -0.041846 -0.005133 0.949453 -0.313868 
-0.023881 0.042846 -0.040690 0.010617 0.999269 -0.036733 
-0.049164 0.040761 0.018854 0.010713 0.999106 0.040904 
-0.051125 0.040734 0.020810 0.038055 0.998833 0.029742 
-0.048222 0.040704 0.019748 0.007451 0.999668 0.024666 
0.017739 0.041432 0.017871 0.028926 0.999469 0.014996 
0.017075 0.041717 0.010200 0.027550 0.999595 -0.007132 
0.009474 0.038759 0.048147 -0.040346 0.444170 0.895034 
0.009623 0.039808 0.047091 0.058548 0.871915 0.486144 
-0.022038 0.040850 0.036194 -0.024506 0.999591 0.014730 
-0.024816 0.040810 0.036059 -0.012831 0.999885 0.008044 
0.022760 0.041395 0.018322 0.068927 0.995657 -0.062578 
0.023941 0.041417 0.019225 0.013595 0.998991 -0.042797 
0.005963 0.040288 0.045241 0.023929 0.991020 0.131552 
-0.032106 0.041391 0.009008 -0.005876 0.997027 -0.076827 
-0.031121 0.041326 0.010019 -0.022346 0.993147 0.114716 
-0.031084 0.041320 0.008807 0.029607 0.995087 -0.094469 
0.019547 0.026803 0.048533 -0.011068 -0.012757 0.999857 
0.020724 0.025017 0.048555 -0.043291 -0.005762 0.999046 
0.021208 0.027566 0.048511 -0.087441 0.019882 0.995971 
-0.019386 0.041538 0.014063 -0.041465 0.998962 0.018857 
-0.018560 0.041505 0.011418 -0.038311 0.999159 0.014636 
-0.020520 0.041440 0.011692 -0.031352 0.999329 0.018953 
-0.024571 0.042719 -0.034366 0.009495 0.999752 0.020128 
-0.028104 0.042778 -0.036406 -0.001126 0.999696 0.024618 
0.019302 0.041221 0.020643 0.000106 0.990072 0.140562 
0.020328 0.041120 0.021309 -0.042463 0.998221 0.041844 
0.012005 0.032555 0.048328 -0.011932 -0.016748 0.999789 
-0.010238 0.040766 0.035995 0.035133 0.998329 0.045874 
-0.008970 0.040875 0.036112 0.002692 0.999878 0.015387 
-0.013204 0.040650 0.043418 0.007318 0.999220 0.038812 
-0.015357 0.040597 0.044215 0.021172 0.999391 0.027744 
-0.014543 0.040522 0.045015 -0.020501 0.999689 -0.014213 
0.019293 0.041337 0.014765 0.008768 0.999817 0.016987 
-0.004679 0.042753 -0.029924 -0.033082 0.987306 -0.155346 
0.019699 0.041283 0.013123 0.006945 0.996587 0.082262 
0.016776 0.041553 0.021234 0.005575 0.989662 0.143308 
-0.004127 0.014974 0.047751 -0.038138 -0.074162 0.996517 
-0.051199 0.040371 0.029334 0.055698 0.998392 0.010528 
-0.052217 0.040567 0.027340 0.071047 0.996579 0.042229 
-0.053875 0.040669 0.029843 0.078143 0.996815 0.015949 
-0.063450 0.041661 0.019860 0.085300 0.996193 0.017977 
-0.060674 0.041484 0.016191 0.082649 0.996408 0.018450 
0.024202 0.041154 0.017994 0.046174 0.985444 -0.163608 
0.023312 0.041245 0.016887 0.095170 0.995186 0.023418 
-0.077783 0.043148 0.016309 0.106516 0.993888 0.028991 
-0.075406 0.042801 0.018067 0.113218 0.993106 0.030360 
-0.074704 0.042897 0.014680 0.104862 0.994122 0.026932 
-0.011974 0.040505 0.046428 -0.005018 0.958616 0.284657 
0.007388 0.040153 0.046260 -0.040010 0.967529 0.249574 
-0.033702 0.034447 0.047765 0.027339 -0.032829 0.999087 
-0.034001 0.035673 0.048000 -0.007958 -0.114460 0.993396 
-0.034620 0.034470 0.047679 -0.039803 -0.049146 0.997998 
-0.013856 0.043014 -0.023132 -0.091459 0.995798 -0.004711 
-0.013711 0.042877 -0.025958 0.057164 0.998364 0.000956 
-0.014801 0.042860 -0.025151 -0.107297 0.993140 0.046474 
-0.009636 0.040317 0.046883 0.064218 0.905607 0.419228 
0.014259 0.041732 0.012230 0.089073 0.993913 0.064837 
0.013035 0.041598 0.010811 0.068985 0.997102 0.032080 
-0.021035 0.040851 0.038725 -0.011544 0.999568 0.027019 
0.025535 0.013664 0.048346 -0.006184 -0.056646 0.998375 
0.022250 0.013521 0.048189 -0.020528 -0.062572 0.997829 
0.022963 0.041370 0.021583 0.005224 0.998801 0.048668 
0.009009 0.025071 0.048515 -0.028008 0.021768 0.999371 
0.011643 0.024937 0.048438 0.028251 -0.002150 0.999599 
-0.003447 0.027541 0.048320 -0.073134 -0.009657 0.997275 
-0.003414 0.030175 0.048274 -0.059859 -0.024844 0.997898 
-0.004484 0.028857 0.048043 -0.095639 -0.024684 0.995110 
0.016888 0.041200 0.022250 0.042272 0.997590 0.055026 
-0.001249 0.040860 0.037414 0.029483 0.999301 0.022973 
-0.002835 0.040823 0.036194 0.007650 0.999068 0.042488 
-0.002283 0.040845 0.037834 -0.013575 0.998605 0.051024 
-0.009774 0.039682 0.047458 0.009535 0.707288 0.706861 
-0.007823 0.039711 0.047419 0.022810 0.780578 0.624643 
-0.019401 0.040743 0.042158 0.006769 0.998985 0.044536 
-0.017453 0.040615 0.043407 0.004953 0.999773 0.020703 
-0.029509 0.037952 0.048189 -0.055846 -0.046815 0.997341 
-0.027436 0.038883 0.048319 -0.066842 0.292596 0.953897 
-0.029623 0.039620 0.047942 -0.026475 0.562496 0.826376 
-0.041159 0.040696 0.042770 -0.001892 0.998724 -0.050466 
0.018281 0.041257 0.021667 0.072086 0.996561 0.040873 
-0.014948 0.040777 0.040910 0.003136 0.998972 0.045233 
-0.011296 0.040106 0.047133 -0.005656 0.796211 0.604993 
-0.014832 0.030467 0.048139 0.037176 -0.029982 0.998859 
-0.015106 0.027929 0.047939 0.015641 -0.030874 0.999401 
-0.013229 0.028722 0.048072 0.000130 -0.012814 0.999918 
-0.012547 0.024004 0.048023 -0.000566 -0.022972 0.999736 
-0.015323 0.025079 0.047978 0.004677 -0.028269 0.999589 
-0.014777 0.022125 0.047848 -0.027788 -0.024813 0.999306 
0.021833 0.007724 0.047735 -0.027363 -0.097753 0.994835 
0.020747 0.007145 0.047528 -0.015488 -0.067422 0.997604 
0.020809 0.006141 0.047612 -0.023274 -0.028944 0.999310 
-0.046131 0.040493 0.023898 -0.001530 0.999117 0.041987 
-0.044581 0.040618 0.021075 -0.032119 0.999378 0.014590 
-0.046431 0.040629 0.021729 0.048891 0.997468 0.051646 
0.018492 0.041212 0.020672 0.087123 0.989170 0.118121 
-0.003676 0.041089 0.034376 -0.023652 0.971637 0.235290 
-0.019523 0.040787 0.040122 0.000303 0.999470 0.032557 
-0.019679 0.023930 0.047947 -0.039953 -0.015598 0.999080 
-0.018632 0.021773 0.048039 -0.023916 -0.043906 0.998749 
-0.040393 0.040511 0.037110 -0.024998 0.999032 -0.036198 
-0.041507 0.040383 0.035272 -0.028958 0.997290 -0.067630 
-0.043761 0.040392 0.036688 -0.019702 0.998461 -0.051838 
-0.045045 0.041550 -0.002866 0.012181 0.999362 0.033565 
-0.046097 0.041665 -0.005640 0.006133 0.998776 0.049078 
-0.017199 0.023640 0.048003 0.031426 -0.021957 0.999265 
-0.018087 0.027511 0.048120 0.003110 -0.034049 0.999415 
-0.009241 0.039392 0.047849 0.034150 0.571181 0.820113 
-0.005649 0.040918 0.036993 0.017223 0.999783 0.011724 
0.018957 0.041627 0.010187 0.055409 0.998450 0.005317 
0.013905 0.025905 0.048381 -0.055753 -0.007096 0.998419 
0.011824 0.028858 0.048408 -0.002693 0.016352 0.999863 
0.019720 0.041379 0.010917 -0.039130 0.998803 -0.029358 
0.018402 0.041449 0.009175 0.034891 0.999378 0.005110 
0.017208 0.041474 0.009203 0.035430 0.999132 -0.021892 
-0.036322 0.040802 0.027147 -0.024652 0.995627 0.090107 
0.019992 0.041544 0.010027 0.020679 0.999701 -0.013045 
-0.007362 0.027669 0.048098 -0.005270 -0.009614 0.999940 
-0.006522 0.025156 0.048054 -0.000263 -0.012008 0.999928 
-0.005227 0.027338 0.048029 -0.035063 -0.000453 0.999385 
0.020478 0.041665 0.011668 0.006614 0.999180 0.039939 
0.012597 0.021210 0.048244 0.020740 -0.042093 0.998898 
0.015129 0.020091 0.048349 -0.045809 -0.039473 0.998170 
0.015996 0.023232 0.048407 -0.021799 -0.029545 0.999326 
-0.041911 0.040909 0.044866 -0.020214 0.998921 -0.041807 
-0.043943 0.040821 0.044650 0.002969 0.999905 0.013426 
0.021299 0.041479 0.012491 0.040245 0.995401 0.086928 
-0.065002 0.041977 0.008546 0.093502 0.995472 0.017107 
0.015335 0.032181 0.048593 -0.021268 0.005431 0.999759 
0.014720 0.034159 0.048493 -0.069337 -0.036235 0.996935 
-0.012459 0.042942 -0.024426 0.127412 0.989960 -0.061204 
0.019812 0.041356 0.009307 0.024683 0.999134 -0.033499 
-0.042490 0.039446 0.047855 -0.024310 0.318885 0.947482 
-0.034189 0.040704 0.039598 -0.010785 0.999799 -0.016878 
-0.035001 0.040705 0.042505 -0.001754 0.999980 -0.006049 
0.013919 0.028119 0.048415 -0.045750 0.001281 0.998952 
0.013675 0.030574 0.048411 -0.050673 0.001245 0.998715 
-0.008726 0.029743 0.048043 -0.038443 -0.028003 0.998868 
-0.007434 0.031449 0.048296 -0.020398 -0.060536 0.997958 
-0.009346 0.031959 0.048127 -0.089243 -0.032034 0.995495 
-0.055261 0.041731 -0.002240 0.052233 0.997530 0.046963 
-0.057571 0.041801 -0.002651 0.042184 0.998369 0.038477 
-0.033267 0.041001 0.013736 -0.054238 0.996233 -0.067665 
-0.033794 0.041072 0.012396 -0.059236 0.995361 0.075815 
-0.034360 0.040888 0.013499 -0.047107 0.998490 -0.028265 
-0.025992 0.040834 0.033196 -0.021218 0.999251 0.032359 
-0.037778 0.030152 0.047892 -0.026883 0.058334 0.997935 
-0.035152 0.030634 0.047934 -0.037996 0.051848 0.997932 
-0.057728 0.040855 0.043476 0.042287 0.998798 -0.024775 
-0.056866 0.040979 0.045442 0.016263 0.999342 -0.032426 
-0.055420 0.040889 0.045406 0.005654 0.998118 0.061068 
-0.052877 0.042047 -0.012662 0.017323 0.998564 0.050690 
-0.054062 0.042159 -0.014528 0.029150 0.998596 0.044233 
-0.055483 0.042097 -0.011448 0.042741 0.998166 0.042875 
-0.024536 0.040966 0.030434 -0.025176 0.999538 0.017036 
-0.021360 0.040979 0.030609 -0.016558 0.999515 0.026365 
-0.023193 0.040967 0.029129 0.000013 0.999652 0.026379 
-0.022477 0.042453 -0.042202 -0.006094 0.842334 -0.538921 
-0.023249 0.042683 -0.041887 0.020880 0.935398 -0.352981 
-0.022033 0.042778 -0.041195 0.017624 0.995628 -0.091724 
-0.015105 0.042914 -0.029638 -0.013292 0.992219 -0.123796 
-0.017793 0.042697 -0.041376 0.033012 0.981191 -0.190196 
-0.016773 0.042127 -0.042574 -0.001963 0.639297 -0.768958 
-0.018708 0.042333 -0.042390 0.019394 0.835649 -0.548921 
0.015526 0.029243 0.048500 -0.022702 -0.000006 0.999742 
-0.054612 0.040692 0.038233 0.047917 0.998828 -0.006777 
-0.056090 0.040775 0.034567 0.080873 0.996724 0.000812 
-0.057487 0.040823 0.037230 0.064288 0.997859 0.012030 
-0.016253 0.040480 0.046503 -0.034202 0.953878 0.298241 
-0.015388 0.040638 0.045770 0.027604 0.995253 0.093328 
-0.016813 0.040677 0.045665 0.018723 0.995633 0.091462 
-0.030500 0.042874 -0.041611 -0.041800 0.990698 -0.129502 
-0.030631 0.042290 -0.042715 -0.036874 0.584311 -0.810692 
-0.035395 0.035631 0.047822 -0.049956 -0.047546 0.997619 
-0.036901 0.035392 0.047883 0.008673 0.006183 0.999943 
-0.035825 0.033535 0.047710 -0.011324 -0.003676 0.999929 
-0.058178 0.041537 0.005683 0.056039 0.997813 0.035061 
-0.054766 0.041359 0.006533 0.046498 0.998410 0.031880 
-0.043301 0.040047 0.047224 -0.021541 0.793527 0.608154 
-0.015116 0.040294 0.046835 0.057302 0.870950 0.488018 
0.017887 0.028017 0.048522 -0.003994 0.000406 0.999992 
0.017438 0.030560 0.048480 -0.001042 0.016854 0.999857 
-0.068988 0.041979 0.028563 0.087264 0.995853 0.025734 
-0.068967 0.041793 0.033892 0.079548 0.996576 0.022560 
-0.067241 0.041709 0.030141 0.087594 0.995781 0.027342 
0.002924 0.039038 0.047908 0.005180 0.525066 0.851046 
0.000540 0.039318 0.047603 0.023682 0.734353 0.678355 
0.000742 0.038395 0.048457 0.087679 0.302661 0.949057 
0.014061 0.033779 0.048299 -0.099677 -0.053317 0.993590 
0.013728 0.032798 0.048389 -0.054981 0.038763 0.997735 
0.019179 0.031314 0.048536 -0.008660 0.024434 0.999664 
0.019063 0.029433 0.048576 -0.003707 0.005386 0.999979 
0.019553 0.007844 0.047708 -0.011456 -0.078366 0.996859 
-0.032165 0.041217 0.014646 -0.044365 0.998811 0.020229 
-0.030178 0.041054 0.015759 -0.019581 0.996996 0.074933 
0.030338 0.034600 0.048524 0.016328 -0.006024 0.999849 
0.031628 0.034982 0.048421 0.002592 -0.006775 0.999974 
0.032047 0.035692 0.048527 -0.013225 -0.080316 0.996682 
-0.044121 0.040670 0.041267 0.005691 0.998618 -0.052246 
-0.028828 0.042809 -0.041895 0.094642 0.944620 -0.314222 
-0.024174 0.025622 0.048088 0.000316 -0.068504 0.997651 
-0.023239 0.023806 0.047774 -0.006272 -0.056916 0.998359 
-0.021783 0.025129 0.047876 -0.004650 -0.040610 0.999164 
-0.057900 0.041207 0.019403 0.074126 0.996993 0.022600 
-0.057576 0.041078 0.024331 0.078474 0.996566 0.026436 
-0.019710 0.036262 0.048701 0.003754 -0.057278 0.998351 
-0.020629 0.038267 0.048563 0.019963 0.233734 0.972096 
-0.023057 0.037237 0.048599 -0.034263 0.005363 0.999398 
-0.027881 0.042709 -0.033267 -0.002165 0.999761 0.021777 
-0.011159 0.039367 0.047798 -0.023665 0.542793 0.839533 
-0.034235 0.040756 0.024742 -0.024701 0.996345 0.081767 
-0.034077 0.040596 0.025915 -0.021761 0.997473 -0.067633 
-0.037505 0.042632 -0.030513 -0.004635 0.999370 0.035200 
-0.034703 0.042650 -0.030962 0.004406 0.999729 0.022852 
-0.039944 0.040809 0.044763 0.026485 0.999552 0.013938 
-0.008410 0.038619 0.048141 -0.037433 0.257833 0.965464 
-0.047547 0.040831 0.015107 0.015439 0.998890 0.044506 
-0.046189 0.040985 0.012049 0.011257 0.999263 0.036704 
-0.048576 0.040974 0.012748 0.011064 0.998478 0.054021 
0.003076 0.040311 0.044553 0.004379 0.997745 0.066975 
0.004036 0.040387 0.043581 0.001879 0.997967 0.063698 
-0.065295 0.041841 0.015459 0.089055 0.995740 0.023884 
0.017544 0.025548 0.048459 0.020130 -0.012616 0.999718 
-0.071766 0.042703 0.009585 0.098260 0.995049 0.014931 
-0.021898 0.041957 -0.042603 -0.019010 0.486975 -0.873209 
-0.020550 0.041782 -0.042822 -0.015646 0.385453 -0.922595 
-0.021581 0.040893 -0.043022 0.001984 0.144174 -0.989550 
0.019020 0.028716 0.048481 -0.021910 -0.019872 0.999563 
-0.068576 0.042324 0.009691 0.103085 0.994505 0.018255 
-0.025124 0.040002 0.047223 -0.006187 0.774082 0.633055 
-0.027545 0.039970 0.047280 0.002411 0.795860 0.605475 
-0.026163 0.039625 0.047915 -0.030623 0.731109 0.681573 
-0.019645 0.040623 0.044245 -0.003033 0.999990 0.003151 
-0.021864 0.040646 0.043625 0.009179 0.999713 0.022138 
0.004620 0.032782 0.048290 -0.049956 0.021721 0.998515 
0.023786 0.032273 0.048595 0.009626 0.048049 0.998799 
0.023050 0.035586 0.048535 -0.026020 0.016648 0.999523 
0.021382 0.032383 0.048488 -0.035757 0.022384 0.999110 
-0.074177 0.042831 0.011414 0.101978 0.994659 0.015938 
-0.025073 0.024083 0.047825 -0.060280 -0.060124 0.996369 
-0.062924 0.041839 0.006644 0.074540 0.996916 0.024538 
-0.065762 0.042171 0.003454 0.091831 0.995373 0.028271 
0.004950 0.039000 0.047812 0.026208 0.544029 0.838657 
-0.018406 0.040256 0.046880 -0.078878 0.865738 0.494243 
-0.019883 0.040228 0.046778 0.033135 0.862443 0.505069 
-0.018793 0.039534 0.047841 0.008472 0.653406 0.756960 
-0.018011 0.042726 -0.039288 0.012497 0.999838 0.012932 
-0.016490 0.042739 -0.040322 0.006555 0.999517 -0.030377 
-0.040201 0.036599 0.047975 0.024097 -0.066262 0.997511 
-0.040325 0.034078 0.047733 0.026702 -0.018994 0.999463 
-0.038551 0.035364 0.047761 0.001577 -0.036243 0.999342 
0.019741 0.028322 0.048569 0.007286 0.001791 0.999972 
-0.030552 0.042791 -0.036304 0.001605 0.999655 0.026213 
-0.029942 0.042710 -0.042393 0.000796 0.844275 -0.535909 
-0.007532 0.042492 -0.018403 -0.100378 0.994455 0.031365 
-0.008519 0.042525 -0.017304 0.018512 0.999765 0.011278 
-0.006810 0.042451 -0.014845 -0.090831 0.994886 0.044179 
-0.012978 0.020859 0.047942 -0.019914 -0.034181 0.999217 
-0.018907 0.040729 0.045726 -0.007714 0.992432 0.122556 
-0.070921 0.041961 0.033183 0.085840 0.995778 0.032511 
-0.072498 0.042092 0.034072 0.077136 0.996612 0.028540 
-0.050852 0.041102 0.010502 0.039892 0.998779 0.029142 
-0.052486 0.041142 0.010832 0.015837 0.999618 0.022630 
-0.051455 0.041075 0.012439 0.033411 0.998789 0.036117 
-0.020964 0.040749 0.041359 -0.004106 0.999297 0.037273 
-0.071851 0.042254 0.023758 0.107984 0.993689 0.030372 
-0.073509 0.042507 0.023895 0.096065 0.994753 0.035176 
-0.072686 0.042274 0.027390 0.080399 0.996581 0.019056 
-0.035413 0.042791 -0.035557 0.006800 0.999550 0.029211 
-0.032979 0.040642 0.041166 -0.005058 0.999983 0.002814 
0.015231 0.008236 0.047641 -0.043607 -0.074966 0.996232 
0.013779 0.007833 0.047522 -0.039450 -0.066708 0.996992 
-0.005750 0.042842 -0.027794 -0.057965 0.997965 -0.026561 
-0.006838 0.042804 -0.025052 -0.074837 0.997189 0.003610 
-0.038019 0.040851 0.044953 0.006466 0.999659 -0.025315 
-0.036318 0.040668 0.044505 0.006576 0.998355 -0.056950 
-0.046084 0.040691 0.017777 0.014398 0.999618 0.023604 
-0.047657 0.040746 0.016897 0.034495 0.999185 0.020985 
-0.048027 0.040843 0.018255 0.027169 0.999263 0.027129 
-0.028533 0.042188 -0.042769 0.024729 0.575958 -0.817105 
-0.027360 0.042634 -0.042246 0.040731 0.889986 -0.454165 
0.008058 0.023348 0.048506 -0.122721 0.000731 0.992441 
0.007980 0.020309 0.048407 -0.103080 -0.051072 0.993361 
0.009800 0.022270 0.048573 0.036996 -0.028624 0.998905 
-0.024353 0.039078 0.048380 -0.003131 0.427888 0.903827 
-0.022691 0.039966 0.047329 0.008256 0.764164 0.644969 
-0.048558 0.040392 0.027216 0.026291 0.998604 0.045821 
-0.050626 0.040481 0.027188 0.050189 0.996376 0.068674 
-0.010546 0.036705 0.048104 -0.001776 -0.040086 0.999195 
0.022901 0.029297 0.048778 -0.040697 0.031496 0.998675 
0.020668 0.029778 0.048455 -0.026331 0.005865 0.999636 
-0.011691 0.022185 0.047846 -0.001491 -0.017676 0.999843 
-0.030524 0.042656 -0.031230 -0.001147 0.999813 0.019306 
-0.032058 0.042712 -0.034221 0.005878 0.999641 0.026140 
-0.023230 0.040751 0.041205 0.000912 0.999743 0.022640 
-0.037922 0.040418 0.030453 -0.019038 0.999236 -0.034128 
-0.039227 0.040523 0.029015 -0.015209 0.999284 0.034634 
-0.039295 0.040337 0.030717 -0.077032 0.992693 -0.092880 
-0.032487 0.040603 0.037794 -0.020606 0.999708 -0.012585 
-0.034589 0.040657 0.037348 -0.022976 0.999716 -0.006359 
-0.004031 0.024749 0.048105 -0.071057 -0.025974 0.997134 
-0.002229 0.021778 0.048215 -0.012975 -0.037482 0.999213 
-0.012110 0.042657 -0.026957 0.114175 0.993189 -0.023221 
-0.033681 0.028813 0.047902 0.072613 -0.041599 0.996492 
0.004543 0.034195 0.048222 -0.033085 -0.009671 0.999406 
0.002850 0.034661 0.048235 0.066561 -0.061447 0.995888 
0.002164 0.036912 0.048445 0.060231 0.030527 0.997718 
-0.000823 0.033103 0.048491 0.023440 -0.046357 0.998650 
0.011665 0.013117 0.047931 -0.013020 -0.059242 0.998159 
0.014626 0.013987 0.048009 -0.024965 -0.061519 0.997794 
0.013253 0.017276 0.048103 -0.014097 -0.050393 0.998630 
-0.005160 0.042486 -0.031854 0.032864 0.998839 -0.035233 
-0.006579 0.042541 -0.033494 0.016201 0.999856 -0.004995 
-0.034487 0.037662 0.048015 -0.040267 -0.004627 0.999178 
-0.036240 0.036715 0.047663 -0.029750 -0.043284 0.998620 
-0.017633 0.040537 0.046475 0.044225 0.947228 0.317496 
-0.026982 0.042632 -0.030363 0.002361 0.999730 0.023117 
-0.024718 0.042586 -0.028149 -0.001578 0.999732 0.023107 
-0.004960 0.032343 0.048226 -0.023376 -0.072594 0.997088 
0.024780 0.037680 0.048509 -0.052464 0.224580 0.973042 
0.027097 0.036696 0.048653 -0.016397 0.027946 0.999475 
-0.016898 0.040233 0.047117 0.017349 0.812998 0.582008 
0.002681 0.040226 0.045931 0.019157 0.987264 0.157935 
-0.068670 0.041775 0.036863 0.089821 0.995565 0.027986 
-0.066896 0.041561 0.036622 0.078291 0.996654 0.023495 
-0.054256 0.041848 -0.008235 0.033268 0.998649 0.039906 
-0.040815 0.040333 0.029600 0.018869 0.999459 0.026941 
-0.040765 0.040555 0.028141 -0.038801 0.998771 0.030842 
-0.039156 0.040124 0.046881 -0.025687 0.841652 0.539410 
-0.042696 0.040752 0.046267 -0.054374 0.942684 0.329227 
-0.053102 0.040498 0.035959 0.060048 0.998063 -0.016289 
-0.023947 0.040771 0.043331 0.007156 0.999221 0.038799 
-0.060627 0.041725 0.005819 0.071622 0.996992 0.029610 
-0.060090 0.041812 0.002100 0.068888 0.997067 0.033336 
-0.042711 0.040377 0.034688 0.012229 0.998157 -0.059435 
-0.021189 0.042714 -0.037989 0.010563 0.999819 0.015858 
-0.044999 0.040310 0.030715 -0.011334 0.999688 0.022274 
-0.043639 0.040287 0.033215 0.003647 0.999686 -0.024813 
-0.043363 0.040230 0.031143 -0.117001 0.989529 0.084516 
-0.028758 0.040727 0.036810 -0.011404 0.999935 -0.000068 
-0.029579 0.040730 0.033817 -0.020450 0.999609 0.019074 
-0.030744 0.040753 0.036640 -0.031245 0.999511 -0.001070 
0.022325 0.027041 0.048821 -0.053157 -0.025028 0.998272 
0.026012 0.030421 0.048658 -0.000301 0.031383 0.999507 
-0.027783 0.041090 0.026920 -0.023294 0.998799 0.043096 
-0.028831 0.040831 0.025844 -0.037908 0.989931 -0.136378 
-0.030246 0.041015 0.026476 -0.028618 0.992691 -0.117240 
-0.010386 0.026696 0.048035 -0.011000 -0.008579 0.999903 
-0.010063 0.022967 0.047983 -0.032638 -0.015928 0.999340 
-0.007577 0.023224 0.048071 0.010446 -0.000262 0.999945 
0.026158 0.033655 0.048403 0.016085 0.010675 0.999814 
-0.029605 0.042702 -0.034427 -0.001932 0.999679 0.025266 
0.024362 0.026682 0.048657 0.014027 -0.019702 0.999708 
0.006506 0.009853 0.047608 -0.011875 -0.065462 0.997784 
-0.034936 0.039478 0.047761 0.043482 0.394890 0.917699 
-0.037230 0.039662 0.047771 -0.016912 0.521719 0.852950 
-0.036488 0.038794 0.048027 0.017349 0.101025 0.994733 
-0.036300 0.040568 0.046751 -0.110930 0.870795 0.478967 
-0.035466 0.040893 0.045940 0.017004 0.998009 0.060738 
-0.037138 0.040848 0.045907 -0.026746 0.993163 0.113627 
-0.023315 0.042062 -0.042661 0.031539 0.533753 -0.845052 
-0.025096 0.041980 -0.042721 0.008283 0.541811 -0.840459 
-0.024319 0.042610 -0.042165 -0.009472 0.896898 -0.442136 
-0.014976 0.039210 0.047959 0.030873 0.462212 0.886232 
-0.015155 0.036573 0.048403 0.064159 0.007017 0.997915 
-0.011901 0.038246 0.048148 0.007567 0.134834 0.990839 
-0.026381 0.024866 0.047700 0.029637 -0.070153 0.997096 
0.034744 0.038695 0.048051 0.041229 0.630640 0.774979 
0.033273 0.038956 0.047883 -0.014896 0.645968 0.763219 
0.033113 0.037536 0.048600 0.004156 0.204355 0.978888 
-0.023955 0.040947 -0.043059 0.027854 0.154188 -0.987649 
-0.019042 0.042676 -0.034253 0.003992 0.999932 0.011004 
-0.022494 0.040437 0.046665 0.013369 0.895032 0.445802 
-0.021418 0.040466 0.046784 0.039217 0.872762 0.486569 
-0.057036 0.041394 0.009427 0.059349 0.997986 0.022415 
-0.016986 0.042601 -0.027516 -0.129274 0.991095 0.031914 
-0.016234 0.042855 -0.028707 -0.181625 0.983238 -0.015975 
-0.022379 0.038518 0.048418 0.000329 0.221842 0.975082 
-0.021656 0.039310 0.048127 0.028230 0.614518 0.788397 
-0.037134 0.040654 0.029737 -0.058539 0.997971 0.025038 
-0.037221 0.040427 0.028672 -0.031127 0.999378 0.016570 
-0.037987 0.040488 0.029495 -0.056713 0.998242 -0.017221 
-0.038566 0.040508 0.027619 -0.061327 0.989815 0.128474 
-0.035809 0.040164 0.047269 -0.029121 0.662857 0.748180 
-0.034416 0.040412 0.046965 0.129348 0.805848 0.577822 
-0.035513 0.040536 0.047054 -0.023004 0.701121 0.712671 
-0.041549 0.040167 0.033352 -0.061836 0.996732 0.051987 
-0.040208 0.040721 0.031931 -0.065140 0.995860 0.063403 
-0.042097 0.040709 0.031015 -0.122704 0.986674 0.106858 
-0.021282 0.042550 -0.042264 0.009066 0.857710 -0.514054 
-0.014483 0.042605 -0.030984 -0.001068 0.997256 -0.074029 
-0.013077 0.042668 -0.030152 0.061910 0.996540 -0.055463 
-0.037187 0.040673 0.024268 -0.031920 0.996273 0.080132 
0.004316 0.038108 0.048282 -0.008562 0.181439 0.983365 
-0.025750 0.037279 0.048540 -0.081230 -0.065298 0.994554 
-0.024379 0.034152 0.048226 -0.067348 -0.067515 0.995443 
-0.033011 0.040847 0.026942 -0.044901 0.998805 0.019286 
-0.032603 0.040653 0.025646 -0.035264 0.998934 -0.029776 
-0.038750 0.040680 0.045953 -0.059330 0.960449 0.272061 
-0.050352 0.042413 -0.020340 0.011287 0.998040 0.061550 
-0.050876 0.042395 -0.021433 0.028536 0.998240 0.051980 
-0.051554 0.042314 -0.020038 0.032389 0.997644 0.060472 
0.015626 0.025033 0.048683 -0.026586 -0.053770 0.998199 
0.013221 0.033692 0.048364 0.043946 -0.050422 0.997761 
-0.008906 0.042582 -0.026702 -0.080353 0.996482 0.023832 
-0.032057 0.040705 0.042880 -0.002288 0.999987 -0.004629 
-0.001024 0.040068 0.046906 -0.014473 0.890893 0.453984 
0.000004 0.039947 0.046989 -0.027166 0.843617 0.536258 
-0.023036 0.028535 0.048070 -0.013067 -0.030337 0.999454 
-0.018301 0.032650 0.048360 0.016147 -0.050826 0.998577 
-0.020013 0.042798 -0.041155 0.020026 0.993800 -0.109369 
0.028173 0.027623 0.048668 -0.010486 -0.009012 0.999904 
0.026271 0.024497 0.048623 0.015995 -0.022058 0.999629 
-0.043188 0.040575 0.029518 -0.196801 0.979132 0.050705 
-0.044212 0.040300 0.029052 -0.105276 0.992405 0.063638 
0.002206 0.032330 0.048253 0.058402 -0.004022 0.998285 
0.003688 0.033190 0.048092 -0.008794 0.012604 0.999882 
0.029936 0.031669 0.048671 -0.018044 0.039963 0.999038 
0.028322 0.033445 0.048482 -0.032034 0.054238 0.998014 
0.027372 0.032357 0.048614 -0.028732 0.080110 0.996372 
-0.038557 0.040738 0.017774 -0.035104 0.998976 -0.028531 
-0.039862 0.040756 0.018130 -0.028348 0.995646 -0.088795 
-0.038915 0.040998 0.019157 -0.005085 0.999747 0.021892 
-0.042217 0.040549 0.029391 0.129136 0.989234 -0.068843 
-0.041210 0.040505 0.030745 0.176991 0.968116 -0.177273 
0.001050 0.029555 0.048202 -0.003646 -0.036081 0.999342 
-0.024058 0.040649 0.045981 0.056090 0.997059 0.052228 
-0.023532 0.040548 0.046683 0.041141 0.883192 0.467203 
0.028146 0.035026 0.048494 -0.016817 -0.070585 0.997364 
0.023182 0.023372 0.048699 -0.008245 -0.012230 0.999891 
0.025094 0.021496 0.048504 0.011842 -0.034929 0.999320 
-0.026144 0.040701 0.043010 0.003551 0.999992 -0.001943 
-0.050904 0.042139 -0.017224 0.028923 0.999023 0.033408 
-0.051576 0.042280 -0.018614 0.070041 0.996495 0.045741 
-0.039861 0.040428 0.026936 -0.040101 0.999195 -0.000683 
0.029934 0.038077 0.048483 -0.010026 0.357680 0.933790 
0.030093 0.036268 0.048699 0.004195 -0.014059 0.999892 
-0.020794 0.039827 0.047325 0.029077 0.786437 0.616985 
0.028427 0.025239 0.048578 -0.016553 -0.018639 0.999689 
-0.017813 0.038057 0.048553 0.062325 0.212690 0.975130 
0.032401 0.034188 0.048516 -0.040783 0.054047 0.997705 
-0.020061 0.042298 -0.042430 0.031431 0.810286 -0.585191 
-0.014289 0.042665 -0.033000 -0.002440 0.999983 0.005326 
-0.011095 0.042600 -0.032362 0.018814 0.999807 -0.005631 
-0.034040 0.042249 -0.019753 0.009804 0.999643 0.024873 
-0.032128 0.042193 -0.016318 -0.002117 0.999076 0.042918 
-0.030511 0.042336 -0.020779 -0.006692 0.999519 0.030274 
-0.028081 0.042005 -0.011515 -0.018485 0.999126 0.037491 
-0.025775 0.042040 -0.009069 -0.023512 0.999402 0.025357 
-0.025151 0.042017 -0.011217 -0.021326 0.998895 0.041885 
-0.032627 0.042003 -0.012659 -0.004776 0.999214 0.039344 
-0.029740 0.042098 -0.014251 -0.009780 0.998943 0.044904 
-0.028256 0.042243 -0.017134 -0.006466 0.999447 0.032630 
-0.027620 0.042303 -0.019906 -0.005022 0.999510 0.030885 
0.023694 0.009896 0.047888 -0.021758 -0.071122 0.997230 
-0.035567 0.042475 -0.022142 0.012025 0.997980 0.062374 
-0.034493 0.042475 -0.024811 0.009394 0.999637 0.025253 
-0.036690 0.042483 -0.024124 0.001318 0.999893 -0.014555 
-0.033225 0.042367 -0.022060 0.016753 0.999227 0.035562 
-0.028161 0.041907 -0.008996 -0.028513 0.998959 0.035623 
-0.024774 0.040670 0.046602 0.011963 0.878304 0.477953 
-0.014902 0.042295 -0.011239 -0.017801 0.999409 0.029417 
-0.015692 0.042362 -0.013029 -0.013049 0.999749 0.018239 
-0.017302 0.042226 -0.011093 -0.024351 0.999230 0.030754 
-0.027536 0.041376 0.006687 -0.014863 0.999312 0.033981 
-0.024922 0.041446 0.007656 -0.020717 0.999302 0.031092 
-0.025295 0.041526 0.005105 -0.030174 0.999040 0.031750 
-0.019910 0.042005 -0.006717 -0.028797 0.999185 0.028301 
-0.021832 0.041914 -0.004464 -0.026361 0.999134 0.032202 
-0.020016 0.041898 -0.001654 -0.029400 0.999123 0.029822 
-0.024609 0.041904 -0.004618 -0.015799 0.998648 0.049521 
-0.025635 0.041890 -0.004815 -0.033581 0.998853 0.034138 
-0.026550 0.041725 -0.003834 -0.021466 0.999123 0.035951 
-0.023822 0.041804 -0.003411 -0.023551 0.999157 0.033613 
-0.023419 0.041921 -0.005449 -0.019537 0.999200 0.034910 
-0.025088 0.040845 0.046000 0.002931 0.999440 0.033322 
-0.064969 0.041549 0.031367 0.075801 0.996918 0.020228 
-0.066214 0.041717 0.027857 0.083114 0.996173 0.027038 
-0.025006 0.042319 -0.019332 -0.014590 0.999413 0.031005 
-0.026573 0.042441 -0.023269 -0.008856 0.999465 0.031497 
-0.048764 0.040558 0.039379 0.010105 0.997828 -0.065091 
-0.028546 0.040626 0.046399 0.017754 0.931759 0.362643 
-0.027215 0.040510 0.046455 -0.055492 0.903116 0.425796 
-0.029486 0.042459 -0.024980 -0.004833 0.999340 0.036015 
-0.027253 0.042544 -0.026864 -0.000988 0.999524 0.030837 
-0.025101 0.041843 -0.005874 -0.023154 0.999576 0.017637 
-0.032065 0.042564 -0.027221 -0.000761 0.999456 0.032985 
-0.034891 0.042563 -0.027805 0.005320 0.999354 0.035543 
-0.031890 0.042409 -0.023919 0.001870 0.999364 0.035614 
-0.016990 0.041949 -0.001276 -0.022235 0.999207 0.033027 
-0.018059 0.042052 -0.004495 -0.028913 0.999200 0.027636 
0.000812 0.014656 0.047875 0.003914 -0.030106 0.999539 
-0.000148 0.016564 0.047812 0.008983 -0.032816 0.999421 
-0.001381 0.014614 0.047794 -0.022391 -0.056701 0.998140 
-0.025675 0.041645 0.000486 -0.010866 0.998886 0.045915 
-0.028257 0.041669 -0.001291 -0.030100 0.999185 0.026893 
-0.029472 0.041604 0.001061 -0.005804 0.998211 0.059508 
-0.030956 0.041888 -0.009939 -0.001468 0.999397 0.034704 
-0.037262 0.042306 -0.021535 0.006173 0.992727 0.120229 
-0.036462 0.042233 -0.020386 -0.016412 0.999701 0.018116 
-0.033962 0.042016 -0.014590 -0.006732 0.999324 0.036133 
-0.038083 0.040704 0.026759 -0.051410 0.998012 0.036453 
-0.038257 0.040587 0.026208 -0.051386 0.961367 -0.270433 
-0.038988 0.040766 0.026625 -0.169793 0.984755 -0.037788 
0.006012 0.012920 0.047758 -0.019272 -0.062520 0.997858 
0.004124 0.013966 0.047874 -0.023121 -0.043167 0.998800 
-0.022939 0.041773 -0.001222 -0.023294 0.998926 0.040058 
-0.029879 0.041529 0.005691 -0.003537 0.999610 0.027688 
-0.029384 0.041355 0.007252 -0.027795 0.996404 0.080039 
-0.029070 0.042600 -0.028110 0.001158 0.999556 0.029771 
-0.024566 0.041980 -0.007243 -0.027733 0.998246 0.052312 
0.002831 0.026230 0.048239 -0.040351 -0.011215 0.999123 
-0.032945 0.041371 0.003709 -0.015389 0.999544 -0.025979 
-0.030801 0.041359 0.004317 -0.002916 0.999024 -0.044076 
-0.030283 0.041428 0.002912 -0.026811 0.998152 0.054528 
-0.020639 0.026434 0.047929 -0.033190 -0.050839 0.998155 
-0.029911 0.041745 -0.003271 -0.008463 0.998923 0.045630 
-0.029807 0.041824 -0.006606 -0.008013 0.999513 0.030148 
-0.019873 0.042432 -0.020761 -0.007142 0.999632 0.026189 
-0.022637 0.042501 -0.023559 -0.008315 0.999685 0.023681 
-0.022393 0.042403 -0.019826 -0.013127 0.999415 0.031571 
-0.027165 0.042130 -0.013934 -0.016625 0.999163 0.037379 
-0.025574 0.042213 -0.015843 -0.010769 0.999425 0.032140 
-0.021137 0.042673 -0.033825 0.003683 0.999901 0.013616 
-0.026543 0.041884 -0.007259 -0.024168 0.998753 0.043681 
-0.026633 0.041873 -0.005694 -0.023741 0.999270 0.029944 
-0.019337 0.041849 -0.042722 0.046616 0.437640 -0.897941 
-0.026064 0.040541 0.046538 -0.041119 0.867512 0.495714 
-0.018356 0.041748 -0.042695 0.011502 0.384345 -0.923118 
-0.016702 0.042314 -0.014173 -0.021374 0.999655 0.015238 
-0.015092 0.042354 -0.015426 -0.071528 0.997075 0.026942 
-0.016959 0.042347 -0.016181 -0.006544 0.999877 0.014224 
-0.022943 0.042017 -0.008525 -0.013411 0.999433 0.030879 
-0.014297 0.042305 -0.013126 -0.066042 0.997031 0.039584 
-0.013404 0.042619 -0.014667 -0.120394 0.990987 0.058735 
-0.035680 0.040646 0.029729 -0.035148 0.998966 -0.028830 
-0.033476 0.040733 0.029804 -0.023927 0.999309 -0.028453 
-0.034713 0.040504 0.028457 -0.029772 0.998273 0.050648 
-0.032016 0.041475 0.005152 -0.010129 0.999172 0.039411 
-0.018427 0.041790 0.001999 -0.027193 0.999196 0.029447 
-0.015791 0.041910 0.001825 -0.025416 0.999372 0.024694 
-0.028675 0.041265 0.014130 -0.000545 0.998935 0.046131 
-0.030305 0.041329 0.014076 -0.047984 0.998797 -0.010113 
-0.016263 0.042504 -0.041608 -0.018253 0.974608 -0.223173 
0.018891 0.033557 0.048455 -0.007617 0.036938 0.999289 
-0.021987 0.042285 -0.016464 -0.015666 0.999448 0.029289 
-0.018395 0.042366 -0.017859 -0.006816 0.999680 0.024364 
-0.050285 0.040587 0.025533 0.032753 0.998229 0.049666 
-0.034350 0.040734 0.044468 -0.001835 0.998697 -0.051001 
-0.032914 0.040748 0.045200 0.051761 0.997365 0.050837 
-0.025297 0.042202 -0.012171 0.009377 0.997729 0.066700 
-0.026100 0.042108 -0.012441 -0.043805 0.998164 0.041819 
-0.021410 0.042592 -0.029342 -0.000405 0.999841 0.017829 
-0.021065 0.042158 -0.011573 -0.018461 0.999305 0.032378 
-0.028547 0.041407 0.004556 -0.019869 0.999744 0.010804 
