0.057787 -0.059331 0.053063 4.726494 -4.059807 -0.057296 
0.058982 -0.057456 0.052494 5.624475 -2.547902 -0.482674 
0.058587 -0.057219 0.050553 5.399481 -2.586592 0.158983 
0.059247 -0.056077 0.050758 5.499633 -2.908521 -0.091836 
0.059556 -0.055676 0.052704 6.033176 -1.701179 -0.113016 
0.051375 -0.060495 0.054429 -1.270010 -6.153063 -0.056610 
0.053758 -0.061010 0.057199 -0.245432 -6.184106 -0.004258 
0.056888 -0.060135 0.054969 3.454746 -5.186373 0.031304 
0.057690 -0.059472 0.057774 4.556260 -4.231055 0.019719 
0.052127 -0.060660 0.058394 -1.294150 -6.148404 -0.010637 
0.055547 -0.060744 0.057327 1.833063 -5.947712 0.017565 
0.056910 -0.060090 0.059533 3.397469 -5.245472 -0.015316 
0.058895 -0.057748 0.054833 5.556601 -2.777747 -0.037218 
0.058548 -0.058209 0.060602 5.417434 -3.142017 0.015497 
0.059295 -0.056586 0.059035 5.937610 -1.980328 0.062212 
0.059903 -0.054080 0.058150 6.142594 -1.310520 0.049175 
0.049136 -0.060058 0.062791 -1.244245 -6.158314 -0.049868 
0.046340 -0.059572 0.065958 -1.305530 -6.143079 -0.061082 
0.049662 -0.060211 0.067102 -1.236568 -6.160120 -0.016838 
0.053713 -0.060999 0.062327 -0.433843 -6.213831 -0.030686 
0.053830 -0.061093 0.067166 -0.396111 -6.196077 -0.053358 
0.055240 -0.060896 0.063694 1.506012 -6.019631 -0.097934 
0.055212 -0.060992 0.068204 1.531426 -5.998577 -0.034294 
0.055948 -0.060674 0.066529 2.830732 -5.574026 -0.054968 
0.054845 -0.060932 0.061221 1.007162 -6.169275 -0.045406 
0.055888 -0.060635 0.060853 2.329649 -5.802553 -0.050888 
0.056577 -0.060302 0.063150 3.204295 -5.359138 -0.015452 
0.057666 -0.059460 0.063389 4.561699 -4.205465 0.010408 
0.058844 -0.057671 0.063506 5.594042 -2.758499 0.053684 
0.059363 -0.056105 0.065338 6.059483 -1.626028 0.040782 
0.057522 -0.059652 0.066935 4.338837 -4.372403 -0.010093 
0.059081 -0.056988 0.067481 5.913119 -2.076267 0.075558 
0.058551 -0.058127 0.070028 5.455379 -3.055990 0.068424 
0.059882 -0.053785 0.063251 6.157734 -1.244937 0.093317 
0.059728 -0.053638 0.048667 6.064408 -1.100989 0.049551 
0.059863 -0.054329 0.050403 6.137536 -1.214000 -0.349186 
0.060414 -0.051524 0.050461 6.133973 -1.346289 -0.081975 
0.060031 -0.053466 0.054178 6.157790 -1.247143 0.010512 
0.061330 -0.047229 0.050361 6.160928 -1.227597 0.007493 
0.061442 -0.046492 0.054666 6.163452 -1.218291 0.028348 
0.060672 -0.050072 0.057198 6.156613 -1.252622 0.037987 
0.062162 -0.042761 0.047707 6.161001 -1.230375 0.037998 
0.063259 -0.037686 0.045493 6.152479 -1.273459 0.032607 
0.062219 -0.042301 0.052488 6.164328 -1.212454 0.031588 
0.063441 -0.036538 0.051941 6.151583 -1.277985 0.050764 
0.060544 -0.050477 0.061287 6.151108 -1.275873 0.060436 
0.061245 -0.047342 0.061086 6.153598 -1.264848 0.040890 
0.061837 -0.044329 0.059287 6.174848 -1.159847 0.048453 
0.060384 -0.051063 0.066404 6.149097 -1.288107 0.040640 
0.061276 -0.047109 0.065092 6.158088 -1.239038 0.037755 
0.061845 -0.043956 0.064489 6.174215 -1.163385 0.021751 
0.063469 -0.036194 0.056846 6.146626 -1.301681 0.047203 
0.062383 -0.041427 0.058318 6.165320 -1.209237 0.049562 
0.062461 -0.040700 0.062148 6.162101 -1.219640 0.054739 
0.063506 -0.035716 0.062904 6.150872 -1.280276 0.030186 
0.029665 -0.056034 0.065055 -1.268316 -6.151286 -0.012203 
0.031269 -0.056408 0.063409 -1.326866 -6.140411 -0.007510 
0.036074 -0.057339 0.064577 -1.273635 -6.151836 -0.030751 
0.029195 -0.055955 0.069792 -1.245224 -6.156091 -0.029850 
0.031739 -0.056530 0.068375 -1.285733 -6.148953 -0.037050 
0.035725 -0.057287 0.070268 -1.292521 -6.146716 -0.044000 
0.037797 -0.057762 0.068863 -1.284108 -6.148834 -0.037979 
0.042593 -0.058766 0.067136 -1.336054 -6.137404 -0.057540 
0.044574 -0.059164 0.068981 -1.326715 -6.140182 -0.026474 
0.040316 -0.058239 0.070592 -1.328135 -6.138308 -0.035933 
0.042240 -0.058725 0.071062 -1.337817 -6.135079 -0.012145 
0.042120 -0.058698 0.075435 -1.319146 -6.140367 -0.017162 
0.025650 -0.055361 0.075307 -1.250468 -6.154801 -0.036113 
0.031787 -0.056590 0.074258 -1.298746 -6.145285 -0.049625 
0.029163 -0.055966 0.074992 -1.270112 -6.149639 -0.039477 
0.028758 -0.055935 0.080551 -1.271574 -6.149933 -0.059283 
0.031779 -0.056640 0.079313 -1.271274 -6.150064 -0.058254 
0.035438 -0.057280 0.076016 -1.278376 -6.149971 -0.044450 
0.037438 -0.057721 0.073625 -1.283578 -6.148744 -0.050371 
0.037577 -0.057791 0.077538 -1.255323 -6.153186 -0.032683 
0.040411 -0.058282 0.076727 -1.305779 -6.142402 -0.031525 
0.035139 -0.057225 0.080572 -1.241357 -6.155797 -0.029520 
0.037394 -0.057769 0.084663 -1.246992 -6.156564 -0.044212 
0.039935 -0.058204 0.082129 -1.298875 -6.142589 -0.043995 
0.048714 -0.060006 0.071468 -1.202526 -6.166356 -0.009208 
0.046088 -0.059534 0.072307 -1.265561 -6.152198 -0.009325 
0.054022 -0.061100 0.069629 -0.382873 -6.211578 -0.026007 
0.043612 -0.058963 0.073118 -1.247690 -6.155756 -0.004370 
0.045752 -0.059465 0.077368 -1.306748 -6.145095 -0.038564 
0.050349 -0.060364 0.075655 -1.271884 -6.152697 -0.048361 
0.055053 -0.061062 0.073044 1.308707 -6.026058 0.055572 
0.053913 -0.061104 0.073411 -0.432871 -6.207603 0.045005 
0.056453 -0.060417 0.071106 3.221073 -5.351701 -0.008874 
0.057284 -0.059807 0.074191 4.265098 -4.488064 0.031577 
0.057584 -0.059544 0.069551 4.568549 -4.211523 0.073050 
0.055668 -0.060855 0.075451 2.228894 -5.751663 -0.052029 
0.053585 -0.061088 0.078263 -0.714560 -6.208895 -0.042121 
0.054968 -0.061098 0.079493 1.322294 -6.018494 -0.069213 
0.056338 -0.060477 0.077510 3.237259 -5.355912 0.051712 
0.057322 -0.059749 0.078912 4.371806 -4.397362 0.054271 
0.058349 -0.058363 0.076279 5.363065 -3.217332 0.011456 
0.059139 -0.056685 0.073749 5.920326 -2.024451 0.069542 
0.059710 -0.054505 0.070039 6.130271 -1.362555 0.028934 
0.059728 -0.054246 0.074335 6.136425 -1.339607 0.057063 
0.060456 -0.050552 0.071077 6.154755 -1.260184 0.044591 
0.058728 -0.057580 0.078772 5.787835 -2.418047 0.011536 
0.059245 -0.056073 0.077323 6.042391 -1.709471 0.076153 
0.059655 -0.054373 0.078877 6.130495 -1.369286 0.040132 
0.060289 -0.051324 0.075178 6.160942 -1.232569 0.034478 
0.041669 -0.058604 0.078985 -1.363022 -6.132126 -0.040054 
0.043699 -0.059003 0.078653 -1.307382 -6.144365 -0.040133 
0.047762 -0.059890 0.080526 -1.229011 -6.161542 -0.054033 
0.041646 -0.058657 0.084159 -1.349783 -6.133860 -0.062929 
0.043346 -0.058997 0.085571 -1.301231 -6.145995 -0.047203 
0.045595 -0.059502 0.084387 -1.305680 -6.144802 -0.055082 
0.048205 -0.060039 0.087746 -1.218858 -6.163664 -0.044590 
0.052520 -0.060864 0.080605 -1.374364 -6.129714 -0.065306 
0.053773 -0.061182 0.081655 -0.580853 -6.191056 -0.077125 
0.055837 -0.060748 0.082560 2.794695 -5.570387 0.004818 
0.058437 -0.058171 0.082075 5.443820 -3.049576 0.033540 
0.054622 -0.061160 0.083301 1.041824 -6.122563 0.011460 
0.057244 -0.059790 0.082168 4.290890 -4.474006 0.003187 
0.057483 -0.059549 0.086285 4.501966 -4.248549 0.052028 
0.051128 -0.060602 0.085363 -1.300306 -6.146619 -0.036306 
0.053640 -0.061166 0.085681 -0.556176 -6.204099 0.011530 
0.054900 -0.061093 0.086828 1.376532 -6.055372 0.028376 
0.055882 -0.060752 0.085355 2.868214 -5.501976 0.024061 
0.056064 -0.060592 0.088146 3.101078 -5.417059 0.041478 
0.053737 -0.061197 0.088750 -0.515601 -6.203069 -0.063872 
0.058270 -0.058337 0.088066 5.445745 -3.079208 0.087931 
0.059091 -0.056594 0.081540 5.958945 -1.937819 0.057215 
0.059656 -0.054280 0.083394 6.121123 -1.402881 0.051393 
0.060501 -0.050077 0.080801 6.155603 -1.258378 0.046390 
0.058921 -0.056974 0.084454 5.910376 -2.081175 0.080096 
0.061456 -0.045889 0.072493 6.161824 -1.223338 0.048817 
0.061708 -0.044594 0.067631 6.175139 -1.157332 0.041453 
0.062357 -0.041437 0.066900 6.168099 -1.190696 0.034769 
0.062130 -0.042251 0.070288 6.167068 -1.198494 0.058921 
0.062792 -0.039071 0.067657 6.150546 -1.280773 0.012528 
0.063805 -0.034519 0.066595 6.138923 -1.334681 -0.079643 
0.064240 -0.031917 0.062758 6.121097 -1.370577 0.066784 
0.062921 -0.038417 0.071663 6.132488 -1.366072 0.048416 
0.063898 -0.034208 0.070440 6.139215 -1.333718 0.021467 
0.064865 -0.029680 0.066805 6.150639 -1.274701 -0.021871 
0.061154 -0.047056 0.078837 6.157054 -1.250858 0.045256 
0.062259 -0.041329 0.077288 6.158776 -1.240543 0.016969 
0.062525 -0.040020 0.074662 6.143349 -1.309312 0.031826 
0.061507 -0.045125 0.084529 6.158473 -1.244437 0.035689 
0.062610 -0.039566 0.082374 6.148118 -1.293108 0.036058 
0.063134 -0.037368 0.077366 6.130526 -1.375926 0.035389 
0.063836 -0.034297 0.076457 6.139505 -1.333472 0.042054 
0.064620 -0.030497 0.074388 6.155808 -1.258370 0.021540 
0.063498 -0.035578 0.080650 6.133529 -1.362051 0.036706 
0.064948 -0.028889 0.077884 6.155096 -1.261980 0.018639 
0.064341 -0.031723 0.082427 6.146451 -1.303412 0.006254 
0.058858 -0.056969 0.090758 5.869514 -2.173835 0.068040 
0.059724 -0.053910 0.087489 6.118226 -1.407514 0.042655 
0.060506 -0.049804 0.087218 6.159681 -1.237426 0.040323 
0.022674 -0.054718 0.083037 -1.306384 -6.143530 -0.039988 
0.022188 -0.054645 0.088050 -1.301516 -6.145103 -0.023489 
0.025424 -0.055383 0.083855 -1.259840 -6.152013 -0.043693 
0.025136 -0.055348 0.088739 -1.258026 -6.152617 -0.020871 
0.028377 -0.055899 0.085067 -1.249273 -6.155167 -0.029113 
0.021999 -0.054625 0.093677 -1.294922 -6.146893 -0.014368 
0.025158 -0.055361 0.093687 -1.231731 -6.158042 -0.001765 
0.028258 -0.055886 0.091314 -1.251067 -6.154234 -0.016560 
0.017725 -0.053832 0.096879 -1.324475 -6.139359 -0.020050 
0.022169 -0.054666 0.098410 -1.316743 -6.141515 -0.014230 
0.024586 -0.055252 0.098250 -1.285984 -6.146551 -0.020755 
0.031286 -0.056588 0.089996 -1.266362 -6.152184 -0.023653 
0.030963 -0.056563 0.096719 -1.298868 -6.144551 -0.028847 
0.034586 -0.057214 0.094787 -1.268413 -6.152058 -0.040625 
0.034706 -0.057199 0.090432 -1.267929 -6.151108 -0.038884 
0.036658 -0.057689 0.094509 -1.260627 -6.153280 -0.038963 
0.027931 -0.055819 0.096924 -1.278775 -6.146207 -0.036619 
0.027635 -0.055803 0.100419 -1.257747 -6.154365 -0.022556 
0.034195 -0.057157 0.100731 -1.270801 -6.151143 -0.024221 
0.031366 -0.056656 0.103307 -1.257732 -6.154310 -0.022032 
0.036782 -0.057687 0.090170 -1.282424 -6.148697 -0.036703 
0.039246 -0.058142 0.091943 -1.297535 -6.144827 -0.038675 
0.039077 -0.058134 0.097401 -1.297465 -6.144789 -0.025519 
0.036280 -0.057637 0.099079 -1.274755 -6.150193 -0.029766 
0.043145 -0.059020 0.098322 -1.310897 -6.143903 -0.008417 
0.041153 -0.058624 0.094202 -1.339874 -6.136396 -0.032869 
0.043260 -0.059023 0.092774 -1.309062 -6.144164 -0.034063 
0.040944 -0.058593 0.098603 -1.338478 -6.137121 -0.018607 
0.039009 -0.058138 0.102180 -1.299513 -6.143839 -0.028041 
0.036362 -0.057682 0.104761 -1.259491 -6.152850 -0.027597 
0.043278 -0.059044 0.102682 -1.307451 -6.143621 -0.010780 
0.040712 -0.058572 0.104769 -1.339520 -6.135694 -0.017596 
0.045004 -0.059451 0.097177 -1.290336 -6.147400 -0.019231 
0.047745 -0.059968 0.099398 -1.199921 -6.167421 -0.005217 
0.045160 -0.059458 0.091618 -1.326526 -6.140626 -0.030682 
0.044962 -0.059445 0.101483 -1.290485 -6.147123 0.011699 
0.052198 -0.060838 0.098186 -1.369252 -6.129066 0.000735 
0.053156 -0.061087 0.104810 -0.978081 -6.199994 -0.079657 
0.046644 -0.059738 0.104586 -1.213588 -6.163833 -0.008412 
0.044652 -0.059375 0.106239 -1.267646 -6.152954 -0.032569 
0.048957 -0.060234 0.105640 -1.283635 -6.150518 -0.039121 
0.017282 -0.053729 0.101819 -1.345131 -6.135720 0.007802 
0.021760 -0.054593 0.103321 -1.311211 -6.143536 -0.005615 
0.024425 -0.055223 0.103715 -1.296096 -6.145982 -0.017921 
0.017782 -0.053825 0.105797 -1.301207 -6.145904 -0.000690 
0.021705 -0.054581 0.107892 -1.333219 -6.138102 -0.023275 
0.028058 -0.055894 0.104868 -1.284884 -6.147981 -0.036087 
0.024199 -0.055194 0.110130 -1.313521 -6.142899 -0.040894 
0.027839 -0.055890 0.109508 -1.302409 -6.145275 -0.040495 
0.030948 -0.056616 0.109508 -1.271556 -6.150816 -0.050255 
0.016923 -0.053663 0.111445 -1.321383 -6.141586 -0.017503 
0.021007 -0.054474 0.112770 -1.317794 -6.142250 -0.050398 
0.011630 -0.052552 0.115228 -1.230928 -6.160829 -0.032008 
0.014597 -0.053121 0.117020 -1.264673 -6.153919 -0.008909 
0.020492 -0.054402 0.117287 -1.352214 -6.135706 -0.025673 
0.024162 -0.055227 0.114847 -1.291319 -6.147389 -0.055447 
0.027503 -0.055852 0.114691 -1.303184 -6.144444 -0.049198 
0.024605 -0.055353 0.118853 -1.269947 -6.151446 -0.026489 
0.027829 -0.055946 0.119723 -1.298407 -6.145477 -0.011274 
0.034243 -0.057194 0.107794 -1.290483 -6.146018 -0.042285 
0.038942 -0.058138 0.107699 -1.251525 -6.153344 -0.021866 
0.036323 -0.057721 0.110603 -1.253888 -6.152600 -0.045431 
0.034126 -0.057205 0.111840 -1.277942 -6.149322 -0.041049 
0.038688 -0.058144 0.114454 -1.230825 -6.158036 -0.053057 
0.042964 -0.058998 0.106853 -1.284095 -6.148184 -0.067545 
0.041672 -0.058780 0.110563 -1.319233 -6.142632 -0.048650 
0.046371 -0.059721 0.109494 -1.253992 -6.156388 -0.052949 
0.050595 -0.060624 0.112126 -1.292142 -6.148587 -0.050034 
0.047956 -0.060112 0.114218 -1.242369 -6.158796 -0.052655 
0.042846 -0.059040 0.116689 -1.288583 -6.147792 -0.020841 
0.044533 -0.059431 0.116024 -1.321351 -6.141884 -0.027840 
0.047602 -0.060066 0.120602 -1.226833 -6.162208 -0.012666 
0.030579 -0.056608 0.116710 -1.285426 -6.146427 -0.023129 
0.036593 -0.057814 0.117363 -1.228081 -6.157785 -0.020559 
0.034183 -0.057240 0.117080 -1.273667 -6.149912 -0.020711 
0.036007 -0.057692 0.120328 -1.293586 -6.145599 -0.006338 
0.030834 -0.056655 0.121235 -1.247947 -6.155213 0.003832 
0.033823 -0.057171 0.122749 -1.271629 -6.150016 -0.008105 
0.040668 -0.058641 0.116737 -1.324612 -6.138319 -0.025413 
0.038880 -0.058198 0.120285 -1.276263 -6.148726 -0.000772 
0.044557 -0.059457 0.121541 -1.278860 -6.151360 -0.030797 
0.041129 -0.058733 0.122965 -1.357305 -6.134505 -0.030845 
0.036193 -0.057740 0.125575 -1.264612 -6.152486 -0.028097 
0.044340 -0.059440 0.127469 -1.254203 -6.156382 -0.017107 
0.053573 -0.061191 0.101203 -0.743019 -6.185198 0.006539 
0.054686 -0.061189 0.102541 1.197293 -6.005832 0.017451 
0.054218 -0.061218 0.105075 -0.134420 -6.249645 -0.067912 
0.054830 -0.061165 0.106881 1.537732 -5.970840 0.003158 
0.055931 -0.060626 0.104296 3.022601 -5.492426 -0.038357 
0.053459 -0.061217 0.109732 -0.647716 -6.213916 -0.073722 
0.055964 -0.060639 0.109858 3.100781 -5.434412 0.006927 
0.054612 -0.061248 0.111697 1.276595 -6.006450 -0.039327 
0.053567 -0.061300 0.115771 -0.468837 -6.197768 -0.007916 
0.055960 -0.060643 0.115632 3.042413 -5.471232 0.016996 
0.056915 -0.060027 0.114052 4.195539 -4.550139 0.012205 
0.057162 -0.059786 0.110035 4.442482 -4.308986 0.023880 
0.058087 -0.058470 0.114335 5.398703 -3.135571 0.005769 
0.051303 -0.060794 0.118428 -1.292767 -6.148391 -0.004776 
0.054690 -0.061212 0.116893 1.533796 -6.010917 -0.040142 
0.057065 -0.059876 0.116925 4.344741 -4.408924 0.022626 
0.055701 -0.060812 0.119754 2.976584 -5.488234 0.017599 
0.051754 -0.060883 0.122976 -1.305596 -6.145205 -0.012196 
0.053797 -0.061341 0.121129 -0.011339 -6.136843 0.015272 
0.055288 -0.060989 0.122568 2.452593 -5.710914 -0.046510 
0.047884 -0.060126 0.126391 -1.217871 -6.163983 -0.016770 
0.053638 -0.061327 0.125624 -0.515167 -6.194855 -0.016374 
0.052265 -0.061012 0.128594 -1.393560 -6.124427 -0.029111 
0.057031 -0.059878 0.121723 4.268509 -4.476181 0.009234 
0.058175 -0.058299 0.119799 5.412864 -3.132842 0.011671 
0.058534 -0.057508 0.122239 5.879360 -2.140767 0.011750 
0.058667 -0.057225 0.118744 5.912910 -2.028439 0.017929 
0.058068 -0.058477 0.123959 5.392721 -3.177916 -0.015501 
0.054487 -0.061270 0.125147 1.338892 -6.070514 0.008599 
0.055898 -0.060715 0.127222 3.065271 -5.425966 -0.031614 
0.053542 -0.061350 0.129191 -0.551534 -6.157194 -0.022684 
0.054650 -0.061240 0.129301 1.488632 -6.048034 -0.063677 
0.057211 -0.059711 0.125030 4.519788 -4.257724 0.005635 
0.058614 -0.057324 0.126740 5.889221 -2.075269 0.070301 
0.059089 -0.055549 0.124797 6.122778 -1.369842 -0.001791 
0.057027 -0.059904 0.130381 4.315268 -4.428387 -0.000263 
0.058068 -0.058452 0.127731 5.413895 -3.143808 0.043090 
0.025149 -0.055296 0.080726 -1.289534 -6.146576 -0.048698 
0.031772 -0.056689 0.083423 -1.239942 -6.155046 -0.042905 
0.034903 -0.057222 0.086247 -1.228307 -6.159716 -0.031492 
0.039564 -0.058181 0.087041 -1.301223 -6.144503 -0.046634 
0.041370 -0.058633 0.089284 -1.337712 -6.137472 -0.043283 
0.051487 -0.060705 0.091091 -1.278261 -6.150269 -0.072626 
0.049110 -0.060260 0.092306 -1.233998 -6.160521 -0.025931 
0.054630 -0.061198 0.090957 1.191250 -6.015674 0.022584 
0.053382 -0.061145 0.093554 -0.813255 -6.207918 -0.007437 
0.054446 -0.061196 0.095056 0.776109 -6.161299 0.000313 
0.053602 -0.061196 0.096612 -0.733235 -6.186827 0.009599 
0.062547 -0.039674 0.087112 6.153252 -1.266871 0.033051 
0.064115 -0.032835 0.085282 6.138938 -1.335435 0.022681 
0.063406 -0.035787 0.087501 6.125529 -1.396687 0.062253 
0.064959 -0.028756 0.083506 6.154166 -1.266447 0.006873 
0.056067 -0.060551 0.092122 3.162580 -5.393084 0.017890 
0.057269 -0.059705 0.089708 4.377012 -4.398683 0.050757 
0.057163 -0.059741 0.092755 4.301294 -4.514052 0.041513 
0.055198 -0.060978 0.095202 2.370138 -5.780778 0.033852 
0.057961 -0.058738 0.093414 5.259035 -3.391148 -0.003521 
0.058419 -0.057918 0.096168 5.582298 -2.834379 0.043835 
0.056343 -0.060347 0.095658 3.418149 -5.256190 0.006641 
0.057349 -0.059592 0.097735 4.478848 -4.259332 -0.007074 
0.055804 -0.060694 0.099443 2.881780 -5.529425 -0.045688 
0.058847 -0.056825 0.097759 5.957117 -1.951018 0.063416 
0.059452 -0.054711 0.093931 6.096556 -1.511337 0.053915 
0.060189 -0.051378 0.091319 6.168136 -1.192503 0.055742 
0.059977 -0.052366 0.094388 6.153149 -1.264209 0.028981 
0.060643 -0.048702 0.094600 6.160359 -1.229608 0.052874 
0.061476 -0.045140 0.090705 6.150431 -1.280976 0.065093 
0.061827 -0.043108 0.095324 6.159118 -1.240844 0.034346 
0.054471 -0.061170 0.099178 1.101099 -6.112106 -0.008859 
0.057223 -0.059750 0.101298 4.345624 -4.394252 -0.007727 
0.058185 -0.058384 0.101386 5.468814 -3.007466 0.041236 
0.057072 -0.059889 0.103955 4.251748 -4.479226 -0.004246 
0.058701 -0.057083 0.103477 5.938229 -2.018317 0.032192 
0.059970 -0.052248 0.099321 6.142065 -1.309337 0.058843 
0.059371 -0.054616 0.102817 6.094236 -1.525705 0.049462 
0.058178 -0.058328 0.105465 5.485375 -3.001030 -0.027254 
0.056923 -0.060017 0.106666 4.060163 -4.699798 0.002404 
0.057718 -0.059067 0.107436 5.117271 -3.616564 0.005242 
0.058309 -0.058052 0.110555 5.602803 -2.743675 0.007315 
0.058681 -0.057157 0.107043 5.934589 -2.005929 0.021269 
0.059926 -0.052210 0.107729 6.140525 -1.306090 0.063021 
0.059898 -0.052303 0.103760 6.151268 -1.275699 0.029678 
0.060703 -0.048270 0.099964 6.154024 -1.262702 0.051349 
0.061608 -0.044185 0.100038 6.150028 -1.282569 0.044938 
0.062169 -0.041385 0.099009 6.160695 -1.233965 0.031026 
0.060463 -0.049247 0.103792 6.160270 -1.229753 0.047786 
0.061391 -0.045040 0.102918 6.147453 -1.296773 0.056224 
0.062061 -0.042206 0.090681 6.166778 -1.202088 0.043078 
0.062729 -0.038726 0.090883 6.151350 -1.276916 0.060870 
0.064328 -0.031750 0.090693 6.136488 -1.343057 0.051023 
0.063537 -0.034894 0.094153 6.124797 -1.399916 0.044342 
0.064935 -0.028725 0.088757 6.144523 -1.310002 0.014935 
0.062909 -0.037708 0.098172 6.140114 -1.330577 -0.023588 
0.062625 -0.038809 0.095851 6.150850 -1.256273 -0.046345 
0.062091 -0.041488 0.104044 6.155217 -1.259957 0.038713 
0.062835 -0.037947 0.102766 6.136838 -1.344876 0.027180 
0.063597 -0.034713 0.098603 6.129632 -1.379842 -0.005908 
0.064984 -0.028491 0.091324 6.153005 -1.271230 0.045606 
0.064642 -0.029964 0.096270 6.145795 -1.305255 0.036647 
0.065705 -0.024731 0.096256 6.168004 -1.194736 0.051069 
0.064676 -0.029723 0.100967 6.151186 -1.280224 0.022799 
0.058823 -0.056535 0.109893 6.037353 -1.725576 0.035334 
0.059940 -0.051914 0.110131 6.146533 -1.294354 0.047077 
0.059337 -0.054496 0.114128 6.112638 -1.452701 0.007278 
0.058729 -0.056981 0.114698 5.946017 -1.964613 -0.008728 
0.060141 -0.050956 0.116138 6.156448 -1.241491 0.043782 
0.059229 -0.054878 0.117473 6.116870 -1.435286 0.034026 
0.060738 -0.047644 0.113005 6.157730 -1.244755 0.007975 
0.061262 -0.045552 0.106547 6.143293 -1.314831 0.059162 
0.060554 -0.048543 0.109600 6.160422 -1.226649 0.033845 
0.061815 -0.042796 0.109112 6.148900 -1.291055 0.033335 
0.062175 -0.041048 0.113353 6.156247 -1.254086 0.018284 
0.059157 -0.055028 0.122121 6.115769 -1.439255 0.004545 
0.059744 -0.052499 0.121580 6.145306 -1.303958 0.044529 
0.060714 -0.047587 0.118606 6.154457 -1.258336 0.056692 
0.059350 -0.054125 0.126708 6.129260 -1.379433 0.067483 
0.060528 -0.048305 0.124331 6.156638 -1.248901 0.023834 
0.060044 -0.050989 0.127386 6.163576 -1.210713 0.031425 
0.061833 -0.042666 0.116264 6.149478 -1.283792 0.046427 
0.061072 -0.045926 0.120564 6.141156 -1.326840 0.048388 
0.061980 -0.041636 0.120353 6.153759 -1.266563 0.057203 
0.061510 -0.043692 0.121997 6.145751 -1.300297 0.051118 
0.062600 -0.038587 0.117964 6.147139 -1.294453 0.055769 
0.062003 -0.041542 0.124931 6.136978 -1.329517 0.057923 
0.062325 -0.039831 0.124785 6.155826 -1.255461 0.049085 
0.063024 -0.037043 0.106898 6.137938 -1.341447 0.050981 
0.063812 -0.033790 0.103645 6.132925 -1.360577 0.046360 
0.062757 -0.038065 0.110454 6.145613 -1.302334 0.040702 
0.062770 -0.037959 0.115494 6.142963 -1.317487 0.055144 
0.063684 -0.033952 0.111467 6.136253 -1.350300 0.025084 
0.064662 -0.029544 0.107656 6.144494 -1.311705 0.048934 
0.065754 -0.024380 0.103277 6.156354 -1.255951 0.001384 
0.066189 -0.022205 0.099009 6.160869 -1.228062 -0.067458 
0.064977 -0.027869 0.112009 6.146344 -1.302954 0.049835 
0.065672 -0.024828 0.109046 6.149978 -1.282788 0.051611 
0.063883 -0.033008 0.115936 6.139667 -1.332484 0.047541 
0.063423 -0.034918 0.118894 6.133493 -1.362086 0.052761 
0.063629 -0.033897 0.122681 6.136164 -1.351046 0.014649 
0.064718 -0.028902 0.118829 6.146251 -1.304083 0.028860 
0.065944 -0.023157 0.112712 6.147857 -1.292970 0.028753 
0.065791 -0.023980 0.115204 6.146492 -1.302478 0.014545 
0.066225 -0.022104 0.108978 6.150229 -1.284465 0.032349 
0.065946 -0.023009 0.119343 6.142701 -1.318634 0.038596 
-0.020197 -0.004962 0.002771 -6.159224 1.238044 -0.061408 
-0.020047 -0.004334 0.001121 -5.536698 1.158521 -1.903105 
-0.020582 -0.007090 0.001007 -5.184080 0.888247 -2.352127 
-0.020125 -0.005874 0.000693 -4.071930 0.833584 -4.382490 
-0.019529 -0.004036 0.000575 -2.344908 0.336655 -5.282341 
-0.019526 -0.002545 0.000716 -4.446050 0.882813 -3.537512 
-0.018808 -0.001370 0.000448 -1.227935 0.063158 -5.996272 
-0.019415 -0.001210 0.001484 -6.134593 1.120797 -0.583229 
-0.019081 -0.000249 0.000628 -4.164014 0.598653 -3.723252 
-0.018967 0.001373 0.000885 -4.990642 1.020798 -2.408360 
-0.018125 0.002079 0.000395 -1.581937 0.232972 -5.780041 
-0.018295 0.004624 0.000990 -5.898446 1.209381 -1.261261 
-0.018107 0.004636 0.000586 -3.987215 0.652578 -4.229079 
-0.017697 0.003961 0.000406 -0.923513 0.100699 -6.134526 
-0.017227 0.006776 0.000265 -1.426966 0.124584 -5.879817 
-0.014217 0.003238 0.000492 0.079991 -0.200240 -6.276670 
-0.019545 -0.001814 0.004332 -6.164818 1.210213 -0.044852 
-0.018348 0.004392 0.002902 -6.156648 1.253842 -0.028492 
-0.017490 0.007860 0.000494 -4.187026 0.824759 -3.896352 
-0.017705 0.007470 0.002588 -6.149837 1.287215 -0.024867 
-0.017390 0.008976 0.000821 -5.947708 1.233656 -1.122685 
-0.016748 0.008839 0.000266 -1.075196 0.121266 -6.088818 
-0.016901 0.010561 0.000400 -3.536088 0.719108 -4.230742 
-0.016839 0.011600 0.003841 -6.135276 1.353869 -0.043188 
-0.015997 0.010697 0.000217 -0.555063 0.030620 -6.222929 
-0.016245 0.012385 0.000294 -2.718808 0.498701 -5.392112 
-0.016659 0.012323 0.000671 -5.254971 1.207221 -2.202312 
-0.015823 0.016043 0.000800 -5.586558 1.472737 -1.689144 
-0.015571 0.014567 0.000183 -1.371629 0.254999 -5.933780 
-0.015940 0.014922 0.000406 -4.253531 1.016511 -3.883986 
-0.014832 0.017628 0.000149 -1.599464 0.210389 -5.716984 
-0.015032 0.018415 0.000311 -4.123428 0.953955 -3.938127 
-0.015077 0.019328 0.001047 -5.882033 1.412966 -1.164415 
-0.014418 0.020352 0.000222 -2.581096 0.430305 -4.874650 
-0.014546 0.021415 0.000602 -5.177666 1.198861 -2.507125 
-0.012161 0.016594 0.000273 0.116131 -0.030372 -6.279328 
-0.013648 0.023061 0.000158 -1.936600 0.343973 -5.550826 
-0.014424 0.022229 0.001447 -6.100885 1.444342 -0.241770 
-0.013946 0.023805 0.000534 -5.067797 0.996659 -2.941784 
-0.011612 0.022344 0.000197 0.014577 -0.118477 -6.281643 
0.004625 -0.022793 0.000669 -0.034970 -0.031635 -6.280158 
-0.002585 -0.024261 0.000624 0.059677 0.082136 -6.280875 
0.008585 -0.024258 0.000649 -0.024197 -0.051314 -6.280939 
0.015041 -0.027007 0.000638 -0.010277 0.011251 -6.282067 
0.002818 -0.018279 0.000563 -0.022123 -0.020364 -6.281466 
0.008201 -0.021999 0.000576 -0.037290 -0.084726 -6.280346 
0.011446 -0.022604 0.000569 -0.016517 -0.028262 -6.281339 
0.016724 -0.023642 0.000585 0.002424 0.012620 -6.282616 
0.011269 -0.017459 0.000654 0.012383 0.001906 -6.282290 
0.016447 -0.019490 0.000649 -0.012521 0.005561 -6.282229 
0.014309 -0.016033 0.000621 0.002750 0.050005 -6.281725 
0.014138 -0.008984 0.000657 -0.043688 -0.118653 -6.281125 
0.021031 -0.011609 0.000634 -0.057261 -0.091626 -6.281932 
0.017589 -0.014770 0.000681 -0.002445 0.081486 -6.281074 
-0.022039 -0.018036 0.000521 -1.505979 0.557020 -5.832677 
-0.017226 -0.018573 0.000489 0.060538 -0.051687 -6.276527 
-0.021551 -0.015492 0.000620 -1.677781 0.451541 -5.786517 
-0.022364 -0.016218 0.001545 -6.081347 1.133636 -0.761658 
-0.022326 -0.016922 0.000913 -4.722508 1.077518 -3.451955 
-0.021893 -0.014414 0.000980 -4.857325 0.900998 -3.100100 
-0.014601 -0.020736 0.000638 0.090030 0.051786 -6.277638 
-0.019511 -0.014088 0.000660 -0.024953 -0.007902 -6.278027 
-0.014660 -0.015783 0.000533 0.046114 0.093389 -6.278842 
-0.021288 -0.013298 0.000663 -1.926973 0.156596 -5.710801 
-0.021061 -0.010771 0.000737 -4.287924 0.726587 -3.713966 
-0.020760 -0.011472 0.000516 -1.405354 0.124131 -5.878192 
-0.017448 -0.012832 0.000642 0.020375 -0.075024 -6.279347 
-0.010494 -0.015927 0.000584 0.027070 -0.086956 -6.281878 
-0.015330 -0.012525 0.000660 0.032461 -0.027668 -6.277001 
-0.009538 -0.013509 0.000546 -0.027927 -0.006818 -6.281095 
-0.009175 -0.018695 0.000674 0.012176 0.001219 -6.279807 
-0.003952 -0.021039 0.000585 0.041666 0.050161 -6.282147 
-0.005986 -0.017067 0.000646 -0.014776 -0.046498 -6.282188 
-0.000136 -0.019980 0.000626 -0.007698 -0.057526 -6.282538 
-0.002703 -0.016764 0.000608 -0.031427 -0.042345 -6.282649 
-0.020149 -0.009323 0.000492 -0.879934 0.041139 -6.143958 
-0.017004 -0.008964 0.000475 0.039026 -0.087125 -6.278512 
-0.011014 -0.010368 0.000613 0.026066 0.013977 -6.282219 
-0.016043 -0.005761 0.000536 0.009983 0.042298 -6.282685 
-0.011885 -0.005938 0.000569 0.096158 -0.013911 -6.282350 
-0.015717 -0.002531 0.000508 0.051562 -0.071656 -6.282186 
-0.006744 -0.004918 0.000621 0.027196 -0.058295 -6.282614 
-0.006223 -0.007798 0.000689 0.021995 0.004275 -6.280057 
-0.004428 -0.011749 0.000569 0.035190 0.065422 -6.281135 
-0.007603 -0.010658 0.000596 -0.007984 0.166133 -6.280787 
-0.000091 -0.008869 0.000675 0.033383 0.004431 -6.282502 
-0.022269 -0.015637 0.005264 -6.175465 1.155665 -0.039914 
-0.021331 -0.010982 0.001705 -6.117712 1.115642 -0.645746 
-0.021049 -0.009718 0.001013 -5.448094 1.004918 -2.260756 
-0.021386 -0.011177 0.007537 -6.167885 1.195064 -0.044536 
-0.021585 -0.011780 0.013841 -6.161849 1.224634 -0.091875 
-0.020863 -0.008209 0.011717 -6.174116 1.162748 -0.066251 
-0.020023 -0.007204 0.000505 -2.004423 0.323573 -5.535245 
-0.020479 -0.006222 0.007459 -6.168331 1.193377 -0.042436 
-0.020175 -0.004464 0.012174 -6.164053 1.214240 -0.072582 
-0.019699 -0.002313 0.009417 -6.163897 1.215879 -0.058588 
0.001861 -0.012960 0.000656 0.045694 0.085749 -6.282259 
0.008223 -0.014680 0.000625 0.024776 0.093231 -6.281864 
0.005219 -0.011086 0.000722 -0.003052 0.007938 -6.280395 
0.011033 -0.012808 0.000681 0.005797 0.051523 -6.282247 
0.006680 -0.008091 0.000642 -0.032007 -0.075791 -6.282425 
-0.009032 -0.002229 0.000622 0.047495 -0.019218 -6.282341 
-0.004427 -0.002394 0.000611 -0.027472 -0.109514 -6.281727 
-0.008932 0.000690 0.000595 -0.005452 -0.162460 -6.279042 
0.000151 -0.000916 0.000560 -0.007634 -0.183019 -6.280175 
-0.003570 0.004003 0.000389 -0.016028 -0.146889 -6.280542 
0.002987 0.002813 0.000399 0.015089 -0.111890 -6.280152 
0.004324 -0.000607 0.000544 -0.045073 -0.219480 -6.278697 
0.001585 0.008860 0.000382 0.083389 -0.040271 -6.282009 
0.004335 0.008708 0.000474 0.048429 -0.095414 -6.277556 
-0.014486 0.001053 0.000502 0.125318 -0.057416 -6.281623 
-0.013582 0.006111 0.000326 0.044041 -0.240979 -6.277149 
-0.010493 0.004748 0.000416 -0.009949 -0.268612 -6.277313 
-0.006480 0.005464 0.000353 -0.002964 -0.163060 -6.279682 
-0.018908 0.001870 0.007516 -6.169180 1.187177 -0.071819 
-0.017951 0.006457 0.006636 -6.149874 1.284600 -0.081414 
-0.010987 0.008388 0.000291 0.053881 -0.088692 -6.281642 
-0.004041 0.008393 0.000354 0.047345 -0.025224 -6.282917 
-0.009852 0.013180 0.000327 0.054209 -0.048795 -6.281009 
-0.006354 0.014012 0.000281 0.054120 -0.096944 -6.281422 
-0.012435 0.012644 0.000248 0.146087 -0.019831 -6.281148 
-0.003233 0.013743 0.000371 0.034327 -0.098639 -6.279391 
0.003280 0.012639 0.000339 -0.011472 -0.175970 -6.280356 
0.003800 -0.004189 0.000648 -0.027477 -0.105453 -6.281106 
0.008184 -0.006040 0.000619 -0.045609 -0.100672 -6.282107 
0.010674 -0.002440 0.000523 -0.044116 -0.149563 -6.281180 
0.014429 -0.005689 0.000549 -0.057905 -0.123480 -6.281312 
0.016848 -0.003264 0.000525 -0.053048 -0.101390 -6.280861 
0.020134 -0.005908 0.000471 0.014090 -0.048475 -6.279113 
0.007439 0.001623 0.000420 -0.021906 -0.098971 -6.280810 
0.013988 -0.000072 0.000443 0.005524 -0.073626 -6.281779 
0.009706 0.006562 0.000441 -0.033695 -0.095563 -6.281360 
0.007285 0.011071 0.000332 -0.079646 -0.167934 -6.280107 
0.011480 0.009361 0.000320 -0.058048 -0.161475 -6.280123 
0.014801 0.005170 0.000472 -0.014268 -0.141623 -6.279013 
0.022791 -0.004764 0.000506 -0.021200 -0.080959 -6.282210 
0.019575 -0.001985 0.000450 -0.012570 -0.071009 -6.280903 
0.023162 -0.002725 0.000468 0.009674 -0.017552 -6.282600 
0.018700 0.002342 0.000493 0.001131 -0.032343 -6.282176 
0.024138 0.000809 0.000511 -0.016890 -0.063639 -6.281096 
0.023927 0.003499 0.000430 -0.065726 -0.244159 -6.277759 
0.018188 0.005527 0.000430 -0.080817 -0.272466 -6.275237 
0.030762 -0.036424 0.000521 0.018968 0.078409 -6.282404 
0.029638 -0.032987 0.000586 0.010412 0.060259 -6.282437 
0.027878 -0.028500 0.000590 -0.022420 -0.006086 -6.283118 
0.033691 -0.028339 0.000551 -0.007342 0.018621 -6.282738 
0.033861 -0.033625 0.000601 0.004614 0.034667 -6.282005 
0.019077 -0.028824 0.000618 0.000595 0.037962 -6.282509 
0.023985 -0.030515 0.000613 0.004851 0.055619 -6.282158 
0.024149 -0.025692 0.000582 -0.002515 0.016912 -6.282872 
0.021662 -0.018331 0.000579 -0.015620 0.030588 -6.280846 
0.028772 -0.020162 0.000573 -0.017540 0.041924 -6.282109 
0.024575 -0.022046 0.000631 -0.018708 -0.011185 -6.282240 
0.023670 -0.016572 0.000637 -0.008710 0.065435 -6.281955 
0.031428 -0.018481 0.000621 -0.019617 0.044823 -6.281434 
0.030674 -0.024445 0.000594 -0.024755 -0.007034 -6.282948 
0.037073 -0.025251 0.000599 -0.015217 -0.022830 -6.282269 
0.034337 -0.021347 0.000538 -0.011688 0.032524 -6.281575 
0.040430 -0.022825 0.000536 -0.020648 0.013717 -6.282351 
0.036702 -0.018677 0.000603 -0.031905 -0.031420 -6.280905 
0.042235 -0.038938 0.000561 -0.009446 0.077295 -6.281837 
0.036993 -0.036186 0.000577 0.026354 0.077031 -6.281806 
0.038659 -0.030869 0.000547 -0.022613 0.000382 -6.283004 
0.043143 -0.035853 0.000564 -0.035104 -0.004023 -6.282841 
0.044144 -0.032762 0.000527 -0.005169 -0.023850 -6.282767 
0.046529 -0.039604 0.000489 -0.051430 0.029326 -6.282339 
0.051650 -0.041076 0.000484 -0.012891 0.040196 -6.282881 
0.050013 -0.036278 0.000522 -0.017810 0.007269 -6.282977 
0.047170 -0.032893 0.000534 -0.028286 0.008399 -6.283019 
0.050470 -0.032725 0.000494 -0.047450 0.024954 -6.282371 
0.043230 -0.026504 0.000557 -0.019987 -0.023226 -6.282930 
0.046815 -0.027277 0.000565 -0.024670 -0.061886 -6.281896 
0.045090 -0.023764 0.000513 -0.022445 -0.011983 -6.282556 
0.055069 -0.033309 0.000478 -0.018753 0.018352 -6.282666 
0.049455 -0.028143 0.000568 -0.045361 -0.061775 -6.280871 
0.053567 -0.029206 0.000533 -0.036816 -0.035591 -6.281946 
0.048820 -0.025445 0.000486 -0.058129 -0.059536 -6.280864 
0.052510 -0.025901 0.000461 -0.041150 -0.047778 -6.281457 
0.026448 -0.012578 0.000588 -0.050527 -0.092293 -6.282183 
0.027431 -0.007410 0.000453 0.034380 -0.058741 -6.279960 
0.029398 -0.008865 0.000514 -0.011402 -0.094681 -6.282011 
0.032942 -0.014927 0.000549 -0.073913 -0.084075 -6.282020 
0.035236 -0.014940 0.000501 -0.068618 -0.061401 -6.279860 
0.038189 -0.013596 0.000520 -0.025602 -0.043043 -6.281978 
0.033218 -0.012553 0.000542 -0.034075 -0.046714 -6.282372 
0.038029 -0.009847 0.000429 -0.044711 -0.026140 -6.281465 
0.031996 -0.008403 0.000460 -0.047773 -0.057972 -6.281160 
0.034301 -0.008953 0.000483 -0.020706 -0.043804 -6.282763 
0.027815 -0.004734 0.000465 -0.002416 0.010863 -6.283006 
0.032511 -0.005681 0.000458 0.001886 -0.002693 -6.282908 
0.029861 -0.001400 0.000488 -0.032825 -0.048172 -6.282183 
0.035818 -0.003478 0.000474 -0.020892 -0.053749 -6.282516 
0.037663 -0.007969 0.000455 -0.027580 0.046248 -6.282894 
0.033755 0.001579 0.000389 -0.070333 -0.217312 -6.278424 
0.040330 -0.004526 0.000474 -0.040586 -0.046996 -6.282039 
0.043181 -0.008925 0.000448 0.001840 0.009384 -6.282885 
0.040196 0.000356 0.000368 -0.069095 -0.228494 -6.277879 
0.041641 -0.020818 0.000574 -0.036626 0.012590 -6.281899 
0.046585 -0.019211 0.000515 -0.028153 -0.115314 -6.281469 
0.047147 -0.022126 0.000550 0.030361 0.008737 -6.281268 
0.046145 -0.017511 0.000448 -0.021190 -0.126300 -6.278262 
0.049051 -0.017045 0.000482 -0.024547 -0.046426 -6.282091 
0.050850 -0.021669 0.000522 -0.074124 -0.057520 -6.280930 
0.053791 -0.022126 0.000486 -0.049132 -0.087081 -6.281538 
0.057270 -0.026977 0.000448 -0.046651 -0.026021 -6.281671 
0.057272 -0.023778 0.000509 -0.055400 -0.058131 -6.279180 
0.051553 -0.018928 0.000427 -0.064094 -0.011381 -6.280157 
0.052800 -0.017350 0.000465 -0.027325 0.022859 -6.281581 
0.050735 -0.014313 0.000417 -0.025656 -0.060926 -6.282332 
0.055949 -0.019994 0.000392 -0.043676 -0.001469 -6.279560 
0.059200 -0.020940 0.000354 -0.056848 0.001354 -6.276913 
0.057712 -0.018433 0.000448 -0.022683 0.034508 -6.279953 
0.052943 -0.015196 0.000433 -0.012206 -0.046922 -6.282872 
0.057202 -0.016200 0.000396 -0.031161 -0.025415 -6.281546 
0.054594 -0.012946 0.000435 -0.016292 -0.047224 -6.282238 
0.057834 -0.013886 0.000443 -0.020633 -0.041925 -6.280023 
0.059425 -0.011337 0.000337 -0.053269 -0.054309 -6.280717 
0.053291 -0.009129 0.000388 -0.029212 -0.002487 -6.282899 
0.042074 -0.016793 0.000494 -0.049033 -0.054437 -6.282227 
0.043396 -0.014552 0.000501 -0.029312 -0.020682 -6.282451 
0.043044 -0.011071 0.000419 0.068360 -0.040476 -6.279794 
0.047747 -0.015174 0.000455 -0.036705 -0.026093 -6.282848 
0.045253 -0.011096 0.000480 0.002985 -0.066969 -6.281421 
0.048254 -0.010397 0.000435 -0.057602 -0.030617 -6.282813 
0.048463 -0.006024 0.000414 -0.040771 -0.065971 -6.282510 
0.044449 -0.001676 0.000385 -0.069344 -0.169498 -6.279689 
0.053633 -0.006848 0.000406 -0.050677 -0.066612 -6.281194 
0.053261 -0.001598 0.000265 -0.076567 -0.133041 -6.281222 
0.058092 -0.008825 0.000370 -0.030383 -0.023771 -6.282417 
0.056663 -0.002980 0.000251 -0.068262 -0.136161 -6.281148 
0.028718 0.002895 0.000397 -0.072999 -0.225837 -6.278379 
-0.004262 0.017733 0.000275 0.030524 -0.072216 -6.282024 
-0.007598 0.017939 0.000197 0.039999 -0.061033 -6.280941 
-0.008127 0.022584 0.000200 0.116573 0.025697 -6.281349 
-0.012663 0.026838 0.000072 -1.507198 0.416298 -5.754117 
-0.009449 0.027225 0.000248 0.109872 0.065576 -6.277921 
-0.006440 0.024052 0.000261 -0.005486 -0.028909 -6.280657 
-0.001176 0.023321 0.000161 0.081270 0.006286 -6.278687 
0.001182 0.014842 0.000235 -0.022334 -0.179345 -6.276143 
0.004167 0.015159 0.000273 0.019339 -0.070094 -6.282436 
0.000758 0.018890 0.000234 0.057408 -0.019216 -6.282427 
0.002375 0.020459 0.000276 0.060692 -0.009583 -6.281631 
-0.005584 0.027481 0.000169 -0.038009 -0.034202 -6.281301 
-0.009348 0.029815 0.000250 -0.022520 -0.078460 -6.279834 
-0.002133 0.028912 0.000242 0.101872 0.102414 -6.281343 
0.000082 0.026691 0.000266 0.091657 0.055909 -6.281146 
-0.006100 0.030970 0.000161 0.076574 0.079128 -6.277677 
-0.003711 0.032908 0.000330 0.072177 0.077574 -6.277470 
0.001604 0.029771 0.000278 -0.034281 -0.011357 -6.282644 
0.002737 0.032386 0.000232 0.050844 0.031465 -6.280200 
0.008133 0.018124 0.000258 -0.018445 -0.052448 -6.282874 
0.007601 0.022978 0.000199 0.002420 0.024530 -6.281820 
0.008676 0.027564 0.000319 0.027142 0.053808 -6.281315 
0.005635 0.027574 0.000258 0.057435 0.069431 -6.282199 
0.005009 0.033688 0.000322 0.039794 0.028371 -6.281333 
0.010424 0.013138 0.000277 -0.005038 -0.044270 -6.282754 
0.015625 0.008338 0.000295 -0.041776 -0.165428 -6.277906 
0.012158 0.015236 0.000290 0.021038 -0.036340 -6.282774 
0.014924 0.011078 0.000288 0.026170 -0.005472 -6.282831 
0.018123 0.013719 0.000329 -0.028353 -0.067631 -6.281367 
0.019906 0.007140 0.000297 -0.058503 -0.177251 -6.276940 
0.024482 0.006159 0.000294 -0.029612 -0.130403 -6.279262 
0.022883 0.011511 0.000309 -0.003193 -0.071583 -6.282218 
0.025151 0.010894 0.000341 0.010657 -0.081694 -6.279974 
0.021952 0.015422 0.000212 -0.030939 -0.090017 -6.281092 
0.026141 0.013130 0.000260 -0.031094 -0.123096 -6.281602 
0.017191 0.017143 0.000261 -0.046015 -0.095175 -6.282164 
0.019329 0.019388 0.000205 -0.019705 0.029494 -6.281885 
0.024291 0.018100 0.000227 0.023656 0.032319 -6.282915 
0.023208 0.021187 0.000259 -0.009475 -0.062680 -6.280035 
0.027901 0.020383 0.000268 -0.044802 0.010560 -6.281893 
0.023784 0.023388 0.000099 -0.003206 -0.052129 -6.239553 
0.026307 0.023359 0.000250 0.086588 -0.012839 -6.280973 
0.010928 0.019206 0.000232 -0.002516 -0.068084 -6.282701 
0.012269 0.025637 0.000299 0.011577 0.035665 -6.282237 
0.015474 0.020883 0.000236 0.008138 0.039907 -6.282699 
0.013451 0.028866 0.000253 0.013602 0.012043 -6.281816 
0.016096 0.024642 0.000308 -0.002509 0.032118 -6.282197 
0.016951 0.029141 0.000286 -0.016244 0.010758 -6.283016 
0.021234 0.024480 0.000246 -0.095975 0.012509 -6.281444 
-0.001675 0.036675 0.000245 0.019618 -0.004714 -6.281664 
0.001019 0.036346 0.000287 0.100224 0.118432 -6.281202 
0.010072 0.033274 0.000265 0.045464 0.030209 -6.281415 
0.003368 0.037794 0.000329 -0.081667 -0.093808 -6.278522 
0.005610 0.038625 0.000268 0.446562 1.571073 -5.791592 
0.008212 0.037680 0.000256 0.438049 1.211015 -5.992586 
0.010866 0.037257 0.000357 0.580127 2.012184 -5.562354 
0.007002 0.038756 0.000521 1.274825 4.159715 -2.469707 
0.008916 0.038057 0.000540 1.371701 4.356052 -3.434373 
0.010403 0.037786 0.001752 1.388072 6.120337 0.038107 
0.011570 0.037482 0.000702 0.895930 5.341802 -2.548606 
0.025207 0.025559 0.000268 0.045640 0.142627 -6.279868 
0.030147 0.026442 0.000256 -0.008187 0.048069 -6.282973 
0.013425 0.032962 0.000347 0.031380 0.069256 -6.280655 
0.018408 0.034167 0.000265 0.026578 -0.158255 -6.277351 
0.020795 0.029457 0.000272 0.041533 0.048502 -6.282543 
0.012829 0.036968 0.000347 0.382145 2.472992 -5.041274 
0.016078 0.036168 0.000279 0.507055 2.092042 -5.335056 
0.014635 0.036874 0.000457 0.879535 4.166708 -3.733337 
0.015757 0.036717 0.000750 1.533582 5.268823 -1.427295 
0.013629 0.037207 0.000859 1.016194 5.685257 -1.057637 
0.015035 0.036632 0.002217 1.522914 6.050838 0.595249 
0.017501 0.036184 0.000660 1.442272 5.241520 -1.841416 
0.018319 0.035499 0.000146 0.512210 1.855430 -5.160707 
0.018057 0.035905 0.001686 1.539081 6.053337 0.637029 
0.020122 0.035167 0.000322 0.805453 2.703735 -4.664495 
0.020214 0.035464 0.000929 1.346392 5.828422 -1.216624 
0.018114 0.035767 0.003333 1.417302 6.107120 0.223953 
0.023211 0.032276 0.000354 -0.027460 0.003079 -6.280287 
0.023053 0.034498 0.000355 0.469176 2.374026 -5.202984 
0.025535 0.033827 0.000226 0.452501 2.177598 -5.189794 
0.028629 0.031500 0.000296 -0.021604 -0.122294 -6.279797 
0.027565 0.033256 0.000194 0.199977 1.541968 -5.710157 
0.021900 0.035010 0.005083 1.276365 6.150814 0.107440 
0.023803 0.034658 0.001746 1.469882 6.095425 -0.141897 
0.024136 0.034504 0.005761 1.506881 6.097966 0.067512 
0.027033 0.033732 0.003160 1.433564 6.107210 0.145304 
0.027242 0.033652 0.009019 1.400601 6.120535 0.022143 
0.029795 0.033203 0.003409 1.366758 6.129734 0.079603 
0.022176 0.034970 0.000677 1.288151 5.439395 -2.189097 
0.024454 0.034390 0.000567 1.127712 5.296741 -2.550076 
0.026062 0.034111 0.000686 1.305187 5.322995 -1.949319 
0.030258 0.032830 0.000265 0.511615 2.465705 -5.039117 
0.028194 0.033416 0.000348 0.919728 4.168169 -4.227875 
0.028704 0.033471 0.000675 1.340149 5.729679 -1.460166 
0.039377 0.002603 0.000266 -0.052308 -0.145500 -6.279006 
0.034283 0.003752 0.000274 -0.051120 -0.135634 -6.278722 
0.037712 0.006274 0.000288 -0.034237 -0.041513 -6.282368 
0.043628 0.001596 0.000252 -0.057980 -0.143783 -6.279465 
0.044408 0.004563 0.000250 -0.030062 -0.032548 -6.282925 
0.050182 -0.002076 0.000331 -0.081451 -0.143607 -6.280495 
0.047773 0.000694 0.000240 -0.043200 -0.149699 -6.279840 
0.051682 0.000829 0.000234 -0.042757 -0.101764 -6.282018 
0.050181 0.004857 0.000209 -0.033119 -0.043136 -6.282946 
0.060782 -0.004729 0.000280 -0.057847 -0.161309 -6.280566 
0.059780 -0.001551 0.000194 -0.046020 -0.100542 -6.281785 
0.057309 0.001368 0.000180 -0.039295 -0.059034 -6.282650 
0.046594 0.010600 0.000186 -0.017117 -0.013760 -6.283054 
0.054602 0.007135 0.000167 -0.039947 -0.025595 -6.282980 
0.050911 0.010126 0.000169 -0.019493 -0.001731 -6.283017 
0.046701 0.014557 0.000201 -0.009041 0.022180 -6.283136 
0.055364 0.010738 0.000166 -0.020384 0.032651 -6.283035 
0.052045 0.015334 0.000199 -0.007543 0.022436 -6.283120 
0.059080 0.008808 0.000125 -0.016535 0.026094 -6.282543 
0.061120 0.005726 0.000151 -0.022657 -0.065535 -6.282685 
0.064911 0.002585 0.000170 -0.030766 -0.041042 -6.282692 
0.065279 0.006773 0.000100 -0.021413 0.012380 -6.281995 
0.062724 0.010955 0.000175 -0.003700 0.042580 -6.282473 
0.058761 0.012738 0.000179 -0.006048 0.039568 -6.282971 
0.056256 0.015665 0.000196 -0.010482 0.022345 -6.283105 
0.060302 0.016332 0.000176 -0.024281 0.035663 -6.282925 
0.065362 0.014623 0.000122 -0.010028 0.051635 -6.281076 
0.067531 0.011649 0.000171 -0.038461 -0.071370 -6.281275 
0.059715 0.020224 0.000209 0.003168 0.070314 -6.282702 
0.062627 0.019604 0.000209 0.012940 0.063495 -6.282842 
0.065388 0.017019 0.000189 0.013502 0.110519 -6.282020 
0.064839 0.023889 0.000249 -0.125015 -0.228179 -6.270709 
0.067993 0.022552 0.000263 0.001328 -0.151257 -6.275761 
0.060483 0.024604 0.000269 -0.082724 -0.151230 -6.276524 
0.066917 0.024381 0.000093 0.306762 1.625423 -5.474765 
0.064706 0.024915 0.000189 0.432678 1.814130 -5.529387 
0.067286 0.024744 0.000465 1.095134 5.073345 -2.338225 
0.065222 0.025249 0.000599 1.185081 5.219847 -2.079759 
0.068814 0.024104 0.000194 0.379944 1.862146 -5.579828 
0.029822 0.004835 0.000296 -0.044436 -0.128697 -6.279855 
0.030256 0.008537 0.000313 -0.040447 -0.043263 -6.282269 
0.031447 0.011895 0.000226 -0.050344 -0.083566 -6.282053 
0.039201 0.011043 0.000185 -0.025291 -0.039601 -6.282493 
0.030488 0.016440 0.000204 -0.023780 -0.001253 -6.282907 
0.037049 0.015351 0.000208 -0.004270 0.019709 -6.283136 
0.030479 0.021152 0.000221 -0.038376 0.015743 -6.282831 
0.034182 0.019627 0.000218 0.011168 0.023725 -6.283125 
0.038038 0.020445 0.000234 0.003620 0.020728 -6.283115 
0.041781 0.016375 0.000213 -0.005099 0.025703 -6.283126 
0.035870 0.024920 0.000242 0.006135 0.057034 -6.282808 
0.033981 0.030271 0.000299 0.015119 -0.164133 -6.277241 
0.036627 0.029468 0.000335 -0.042333 -0.115299 -6.274364 
0.043350 0.023520 0.000232 -0.001154 0.045974 -6.282948 
0.047943 0.018220 0.000208 -0.009877 0.014640 -6.283160 
0.047122 0.022847 0.000222 0.010259 0.070610 -6.282487 
0.046288 0.027539 0.000290 -0.025601 -0.141896 -6.277583 
0.048635 0.026219 0.000309 0.013596 -0.032291 -6.279552 
0.041500 0.028654 0.000283 -0.021787 -0.030773 -6.281947 
0.036050 0.031471 0.000238 0.481823 2.455551 -4.842490 
0.033275 0.031903 0.000190 0.152530 1.268955 -5.878418 
0.038897 0.030640 0.000189 0.305368 1.506031 -5.705222 
0.038908 0.031016 0.000431 1.064980 4.438377 -3.741151 
0.040915 0.030473 0.000442 1.010009 4.882736 -3.491596 
0.037663 0.031485 0.000681 1.270470 5.213042 -2.031616 
0.041769 0.030088 0.000285 0.457652 2.091211 -5.511062 
0.043392 0.029697 0.000211 0.189205 1.861264 -5.528191 
0.042880 0.030257 0.000648 0.979565 5.241735 -2.200683 
0.045211 0.029698 0.000363 0.955104 4.252969 -3.380464 
0.044721 0.029894 0.000871 1.373327 6.077366 -0.329766 
0.040525 0.030729 0.000976 1.398462 6.017967 -0.709321 
0.039570 0.030849 0.003199 1.453600 6.101902 0.111993 
0.042777 0.030220 0.004451 1.335310 6.138372 0.030901 
0.046385 0.029092 0.000199 0.722673 2.138625 -5.100046 
0.049252 0.028348 0.000209 0.383244 1.722786 -5.595832 
0.045442 0.029580 0.002552 1.422284 6.101607 0.256358 
0.047205 0.029335 0.000878 1.275128 5.729569 -1.309193 
0.049598 0.028696 0.000559 0.660177 5.197886 -2.995817 
0.049119 0.028900 0.001307 1.312080 6.123711 -0.146773 
0.048280 0.029021 0.004904 1.382812 6.126674 0.031434 
0.030278 0.033072 0.008994 1.384080 6.125479 0.012148 
0.033798 0.032162 0.011298 1.315792 6.138295 -0.021404 
0.037171 0.031533 0.007155 1.402187 6.119188 -0.035364 
0.033607 0.032202 0.007516 1.381973 6.125445 -0.005980 
0.039568 0.030919 0.012901 1.434380 6.112473 -0.031960 
0.039701 0.030844 0.007276 1.417104 6.116343 -0.049888 
0.036942 0.031648 0.013093 1.348789 6.126638 -0.027694 
0.042405 0.030342 0.008626 1.337684 6.136513 -0.049741 
0.042739 0.030321 0.015714 1.380227 6.125501 -0.009544 
0.031867 0.032767 0.000616 1.287353 5.134666 -2.160520 
0.033711 0.032155 0.000346 0.946188 4.122565 -4.044763 
0.034821 0.032056 0.000812 1.367023 5.877666 -1.100378 
0.033982 0.032110 0.003143 1.364035 6.122088 0.144728 
0.037123 0.031529 0.002962 1.405908 6.119405 0.116834 
0.045515 0.029570 0.007378 1.349825 6.134617 -0.022947 
0.048113 0.029074 0.010855 1.376724 6.127904 -0.004896 
0.045515 0.029586 0.011431 1.376618 6.128419 -0.023411 
0.055398 0.020550 0.000199 0.010690 0.058933 -6.282578 
0.051253 0.021614 0.000210 0.003037 0.079092 -6.282349 
0.052547 0.023636 0.000259 -0.005427 0.092541 -6.282259 
0.055629 0.025581 0.000271 -0.002834 -0.041098 -6.282036 
0.057370 0.025137 0.000303 0.015782 -0.063012 -6.278447 
0.051657 0.028260 0.000267 0.547981 2.695570 -4.626138 
0.053669 0.027470 0.000288 0.265938 1.179032 -6.054959 
0.051239 0.028620 0.000740 0.828587 5.639617 -1.143293 
0.053061 0.028139 0.000508 1.031040 4.342869 -3.879625 
0.053254 0.028331 0.001048 1.238164 5.661603 -0.104088 
0.054798 0.027755 0.000491 0.895875 4.257816 -3.864592 
0.056287 0.027036 0.000218 0.536883 2.083903 -5.278579 
0.058059 0.026618 0.000244 0.635362 2.383591 -4.961430 
0.058811 0.026789 0.000778 1.257496 5.670331 -1.102673 
0.059682 0.026239 0.000177 0.237325 2.092416 -5.128182 
0.056082 0.027507 0.000660 1.430136 5.245958 -1.381857 
0.053648 0.027769 0.002349 1.500674 5.967425 0.927672 
0.057534 0.026886 0.002042 1.394694 6.078011 0.585003 
0.055875 0.027227 0.001940 1.405219 5.999465 0.835770 
0.051255 0.028304 0.002172 1.255413 6.061156 0.764337 
0.050785 0.028363 0.004509 1.463946 6.105783 0.052170 
0.055273 0.027342 0.004829 1.401760 6.122814 0.018602 
0.052886 0.027935 0.007167 1.389927 6.126554 -0.012733 
0.055255 0.027361 0.009805 1.404972 6.123295 -0.008961 
0.057347 0.026915 0.008011 1.406920 6.122543 -0.006068 
0.062354 0.025490 0.000183 0.372166 1.702977 -5.595431 
0.059837 0.026597 0.000587 1.030785 5.166975 -1.652152 
0.061821 0.026030 0.000526 1.236253 5.112967 -2.102612 
0.060366 0.026233 0.001922 1.451175 6.077452 0.520291 
0.063456 0.025689 0.000504 1.139478 4.791856 -2.290288 
