-0.021096 0.017936 0.002314 0.443491 -0.007975 -0.896243 
-0.036119 0.049490 0.001549 -0.418525 -0.261410 -0.869771 
-0.016954 -0.000143 0.003502 -0.175701 -0.173986 0.968947 
-0.020338 0.017426 0.002430 -0.037152 -0.076964 -0.996341 
-0.020734 0.017788 0.002452 0.062048 -0.049350 -0.996852 
-0.015728 -0.000466 0.003634 -0.086575 0.355425 0.930687 
-0.016114 0.000077 0.003622 0.103044 -0.046807 0.993575 
-0.015261 0.000036 0.003495 -0.164339 0.192285 0.967481 
-0.030345 0.024902 0.003424 0.058689 -0.121289 0.990881 
-0.021864 0.017825 0.003546 0.149146 0.094958 0.984245 
-0.021648 0.017265 0.003396 0.319514 0.014056 0.947477 
-0.030625 0.025136 0.003500 0.239428 0.501975 0.831080 
-0.031088 0.025447 0.003204 0.069984 0.463286 0.883441 
-0.031155 0.025099 0.003497 -0.070659 0.400491 0.913572 
-0.030502 0.025273 0.003322 0.071509 0.495159 0.865855 
-0.030716 0.025559 0.003158 -0.135640 0.273377 0.952296 
-0.020974 0.017089 0.003087 -0.015998 0.339991 0.940292 
-0.030046 0.025338 0.003336 -0.091626 0.127523 0.987594 
-0.021358 0.017304 0.003264 0.528830 0.088081 0.844145 
-0.031172 0.026120 0.003024 0.155001 -0.015586 0.987791 
-0.030697 0.026244 0.003046 -0.202989 0.015979 0.979051 
-0.021194 0.017292 0.003052 0.526471 0.133237 0.839688 
-0.029931 0.025823 0.003419 -0.088096 -0.082022 0.992729 
-0.020966 0.017624 0.003062 0.006538 -0.095405 0.995417 
-0.015137 -0.001439 0.003840 -0.265688 -0.264908 0.926948 
-0.020414 0.017264 0.003297 -0.061161 0.007656 0.998099 
-0.015470 -0.000860 0.003992 -0.247984 0.144232 0.957967 
-0.020651 0.018098 0.003211 -0.118609 0.321016 0.939617 
-0.021025 0.018066 0.003141 0.191214 0.117474 0.974493 
-0.020530 0.017715 0.003324 -0.234441 0.057524 0.970427 
-0.021404 0.017838 0.003341 0.436947 0.016601 0.899334 
-0.034131 0.050026 0.000513 -0.000057 -0.032002 -0.999488 
-0.021459 0.018386 0.003272 0.369055 0.224982 0.901766 
-0.032076 0.025267 0.003432 -0.157402 0.020098 0.987330 
-0.014702 -0.001662 0.004007 -0.218595 -0.234308 0.947268 
-0.014826 -0.001212 0.004058 -0.043259 -0.031447 0.998569 
-0.014306 -0.001744 0.004008 0.224952 -0.212253 0.950971 
-0.031590 0.025318 0.003361 0.026222 0.283342 0.958660 
-0.020041 0.016682 0.003204 0.187025 0.138515 0.972541 
-0.032908 0.047271 0.000669 -0.157884 -0.021332 -0.987227 
-0.015194 -0.000452 0.003825 -0.254105 0.429572 0.866544 
-0.019621 0.016840 0.003113 0.029521 0.099170 0.994633 
-0.018958 0.016635 0.003297 0.178976 0.297326 0.937851 
-0.014908 -0.000802 0.003993 -0.013256 0.175308 0.984424 
-0.032271 0.046721 0.000651 -0.036844 -0.137053 -0.989878 
-0.032379 0.025639 0.003261 -0.135042 0.099462 0.985835 
-0.014859 -0.000053 0.003771 -0.376439 0.288801 0.880277 
-0.014499 -0.000958 0.003916 0.196327 0.017750 0.980378 
-0.032493 0.026359 0.003141 -0.129022 0.092418 0.987326 
-0.013886 -0.000848 0.003807 0.100367 -0.167592 0.980734 
-0.014279 -0.000433 0.003979 -0.014439 -0.148983 0.988734 
-0.014561 -0.000541 0.004010 -0.032840 0.038941 0.998702 
-0.031637 0.025733 0.003218 0.157083 0.171638 0.972556 
-0.031993 0.047260 0.000655 0.165922 0.077400 -0.983097 
-0.031872 0.046805 0.000687 0.253537 -0.072047 -0.964639 
-0.019131 0.017055 0.003144 0.135566 0.178597 0.974538 
-0.019696 0.017677 0.003160 0.125804 0.131681 0.983277 
-0.019208 0.017625 0.003123 0.326535 0.027482 0.944786 
-0.032668 0.047760 0.000716 0.035880 0.072742 -0.996705 
-0.032514 0.027043 0.003164 -0.348460 0.122594 0.929272 
-0.031760 0.026175 0.003264 0.096655 -0.029407 0.994883 
-0.015625 0.000415 0.003623 0.135116 -0.039552 0.990040 
-0.031861 0.027062 0.003259 -0.038032 0.108483 0.993371 
-0.020210 0.017700 0.003314 0.175092 0.163200 0.970932 
-0.031429 0.046679 0.000864 0.351709 0.005984 -0.936090 
-0.016788 0.000653 0.003968 -0.132906 -0.453957 0.881056 
-0.016650 0.000798 0.003991 0.318904 -0.171145 0.932207 
-0.016108 0.000592 0.003650 0.249490 -0.098323 0.963373 
-0.016093 0.001025 0.003692 0.323407 0.008956 0.946218 
-0.016332 0.001301 0.003747 0.410711 -0.035887 0.911059 
-0.015466 0.000926 0.003549 0.087461 -0.045137 0.995145 
-0.030749 0.046594 0.001185 0.493341 0.162172 -0.854585 
-0.015019 0.000561 0.003496 -0.216837 0.061658 0.974259 
-0.020823 0.018535 0.002505 0.089850 0.055263 -0.994421 
-0.031322 0.026633 0.003222 0.131870 -0.165245 0.977397 
-0.015879 0.001384 0.003620 0.179293 -0.167052 0.969509 
-0.020258 0.018259 0.002439 -0.098455 -0.007257 -0.995115 
-0.020471 0.019292 0.002457 -0.089930 0.005759 -0.995931 
-0.019861 0.018901 0.002387 -0.089725 -0.081301 -0.992643 
-0.019833 0.019609 0.002369 -0.326001 -0.020147 -0.945155 
-0.021074 0.018973 0.002471 0.086656 0.079904 -0.993029 
-0.032068 0.048347 0.000867 0.306492 0.190033 -0.932711 
-0.029314 0.019237 0.001948 -0.209423 -0.169344 -0.963050 
-0.031159 0.047664 0.000969 0.501559 0.226274 -0.835008 
-0.021711 0.019065 0.003185 0.525242 0.234544 0.817991 
-0.020998 0.018621 0.002934 0.138629 0.233760 0.962361 
-0.029727 0.020110 0.002079 -0.314682 0.048936 -0.947935 
-0.014654 0.000624 0.003714 -0.226527 0.320545 0.919748 
-0.020559 0.018338 0.003080 -0.009586 0.291303 0.956583 
-0.014317 0.000086 0.003926 -0.258718 0.269722 0.927532 
-0.029738 0.020485 0.002131 -0.316801 0.288603 -0.903519 
-0.029285 0.020395 0.001908 -0.311442 0.101826 -0.944794 
-0.014085 -0.000191 0.004104 -0.166452 -0.016198 0.985916 
-0.014143 0.000589 0.003744 -0.242753 0.441816 0.863637 
-0.013823 0.000311 0.003958 -0.139848 0.205109 0.968696 
-0.032685 0.048786 0.000738 0.246894 0.141880 -0.958600 
-0.027628 0.019167 0.002145 -0.131334 -0.165104 -0.977493 
-0.021030 0.019256 0.002848 0.077328 0.151403 0.985443 
-0.021640 0.019471 0.002974 0.444744 0.233953 0.864563 
-0.032132 0.048762 0.000920 0.425907 0.265376 -0.864973 
-0.032207 0.049423 0.001133 0.496968 0.275994 -0.822709 
-0.021265 0.020021 0.002795 0.074058 -0.240271 0.967877 
-0.028413 0.019807 0.001922 0.028888 -0.146437 -0.988798 
-0.027885 0.019440 0.001960 0.094263 -0.285005 -0.953880 
-0.027676 0.019897 0.001846 0.004698 -0.205027 -0.978745 
-0.027316 0.019637 0.001894 -0.145055 -0.256194 -0.955680 
-0.031653 0.048499 0.001137 0.597776 0.418263 -0.683901 
-0.031786 0.048953 0.001264 0.708102 0.370075 -0.601361 
-0.020281 0.018787 0.003053 -0.090110 0.070571 0.993428 
-0.029003 0.019760 0.001877 -0.126129 -0.068147 -0.989670 
-0.019974 0.019326 0.003017 -0.106577 0.011785 0.994235 
-0.019692 0.017924 0.002430 0.105264 -0.036949 -0.993758 
-0.019734 0.018406 0.002333 0.170755 0.025562 -0.984982 
-0.028629 0.020372 0.001746 -0.119909 0.003845 -0.992777 
-0.030537 0.047467 0.001501 0.729170 0.320193 -0.604803 
-0.019128 0.017927 0.002625 0.411510 0.113154 -0.904354 
-0.018810 0.017655 0.002774 0.127085 0.118772 -0.984755 
-0.031130 0.048033 0.001220 0.635123 0.544836 -0.547514 
-0.018878 0.017710 0.002877 0.000764 -0.132726 0.991152 
-0.019120 0.018158 0.003114 -0.168276 -0.093913 0.981256 
-0.013784 -0.001519 0.003815 0.190621 -0.006049 0.981645 
-0.019562 0.018233 0.003004 -0.087074 0.127149 0.988054 
-0.027905 0.020321 0.001705 -0.006719 -0.156947 -0.987584 
-0.030744 0.047823 0.001567 0.704026 0.592934 -0.390865 
-0.013482 -0.001652 0.003828 -0.060748 0.188963 0.980103 
-0.013160 -0.002070 0.004000 -0.246665 0.001349 0.969100 
-0.031218 0.048381 0.001738 0.727384 0.555518 -0.402881 
-0.019184 0.018578 0.002577 -0.150118 -0.378915 -0.913175 
-0.019430 0.018546 0.002557 0.301737 -0.048920 -0.952135 
-0.019492 0.019039 0.002252 -0.245191 -0.350619 -0.903852 
-0.012896 -0.001836 0.003973 0.023301 0.334630 0.942062 
-0.012974 -0.001495 0.003657 -0.029588 0.431242 0.901751 
-0.018487 0.018139 0.002412 -0.566142 -0.382384 -0.730250 
-0.013250 -0.001330 0.003685 0.255481 0.137884 0.956931 
-0.013500 -0.000975 0.003771 0.231894 -0.143822 0.962050 
-0.018929 0.018998 0.002154 -0.423309 -0.457429 -0.782028 
-0.012467 -0.001407 0.003754 0.045089 0.246293 0.968146 
-0.012937 -0.000922 0.003539 0.092356 -0.083451 0.992223 
-0.029209 0.020873 0.002014 -0.373326 0.134189 -0.917944 
-0.019933 0.018199 0.002998 0.086997 0.161121 0.983093 
-0.028247 0.021054 0.001849 -0.148166 0.143849 -0.978445 
-0.032102 0.047258 0.003791 -0.039632 -0.100255 0.994172 
-0.028934 0.021594 0.001859 -0.099715 -0.300014 -0.948709 
-0.011699 -0.002547 0.003834 0.276901 0.169717 0.945792 
-0.011262 -0.002736 0.003722 0.114069 0.189955 0.975144 
-0.019879 0.018783 0.003079 0.039901 0.001645 0.999202 
-0.019367 0.018977 0.002987 -0.313362 -0.174490 0.933465 
-0.032743 0.050050 0.000983 0.450575 0.083460 -0.888829 
-0.012182 -0.001668 0.003711 0.255840 0.184165 0.949015 
-0.011539 -0.001926 0.003648 0.183334 0.173106 0.967689 
-0.011738 -0.001135 0.003582 0.217194 0.047471 0.974974 
-0.027947 0.021574 0.001965 -0.126483 0.000745 -0.991969 
-0.028555 0.021944 0.001677 0.070112 -0.253108 -0.964894 
-0.011173 -0.001465 0.003507 0.087893 0.091342 0.991933 
-0.027385 0.021391 0.001613 -0.102276 0.106102 -0.989081 
-0.018838 0.018443 0.003274 -0.520619 -0.258373 0.813756 
-0.012298 -0.002220 0.003918 0.218595 0.223949 0.949770 
-0.034772 0.050759 0.000536 -0.142943 -0.087437 -0.985861 
-0.034486 0.050389 0.000556 -0.066789 -0.025367 -0.997445 
-0.034142 0.050565 0.000628 0.154506 0.098590 -0.983060 
-0.018891 0.019273 0.003568 -0.479228 -0.355346 0.802539 
-0.018679 0.018720 0.003544 -0.470520 -0.270304 0.839968 
-0.024215 0.020980 0.001986 0.095018 0.131267 -0.986783 
-0.023679 0.020969 0.001951 0.413643 0.415507 -0.810095 
-0.030198 0.020311 0.002251 -0.054974 0.059328 -0.996724 
-0.034931 0.051814 0.000656 0.055627 0.074757 -0.995649 
-0.034446 0.051066 0.000514 0.112092 0.055656 -0.992138 
-0.023222 0.020408 0.002012 0.591117 0.464429 -0.659459 
-0.033853 0.051092 0.000724 0.268148 0.112897 -0.956740 
-0.030038 0.020729 0.002228 0.119468 0.032329 -0.992312 
-0.030307 0.021108 0.002112 0.270247 -0.207655 -0.940131 
-0.022535 0.020500 0.002341 -0.007345 0.062723 -0.998004 
-0.021610 0.020561 0.002472 0.087815 -0.068361 -0.993788 
-0.029742 0.020768 0.002366 -0.025811 0.160669 -0.986671 
-0.021250 0.020197 0.002413 0.032411 0.020498 -0.999264 
-0.012349 -0.000755 0.003640 -0.030610 -0.233604 0.971850 
-0.030418 0.020154 0.002917 -0.323120 -0.174354 0.930158 
-0.012882 -0.000651 0.003645 0.078636 -0.464433 0.882110 
-0.013072 -0.000337 0.003860 0.093205 -0.338927 0.936184 
-0.030849 0.020572 0.003027 -0.115132 -0.125353 0.985409 
-0.012537 -0.000271 0.003958 -0.026150 -0.399395 0.916406 
-0.030434 0.020519 0.003130 -0.506181 -0.356069 0.785491 
-0.018405 0.018973 0.001762 -0.579648 -0.436678 -0.687983 
-0.033386 0.050647 0.000730 0.259965 0.132867 -0.956433 
-0.030037 0.019797 0.003144 -0.394478 -0.174975 0.902092 
-0.017767 0.020674 0.001149 0.166844 0.134108 -0.976820 
-0.017479 0.019721 0.001244 0.167017 -0.061690 -0.984022 
-0.018074 0.020226 0.001121 -0.025722 -0.082077 -0.996294 
-0.029939 0.020269 0.003401 -0.433241 -0.305634 0.847874 
-0.011329 -0.000747 0.003416 0.207357 -0.054936 0.976722 
-0.010774 -0.001104 0.003564 -0.025417 0.060930 0.997818 
-0.030188 0.020443 0.003387 -0.533175 -0.450631 0.716000 
-0.033357 0.051179 0.000883 0.419533 0.266187 -0.867835 
-0.030757 0.021029 0.003100 -0.424983 -0.105517 0.899031 
-0.030355 0.021079 0.003356 -0.381420 -0.141026 0.913581 
-0.030874 0.021387 0.003005 -0.434273 -0.109849 0.894058 
-0.032991 0.050668 0.000860 0.463494 0.194452 -0.864501 
-0.032637 0.050449 0.001061 0.622598 0.220994 -0.750689 
-0.029974 0.020795 0.003508 -0.208787 0.075178 0.975067 
-0.011977 -0.000504 0.003755 0.178494 -0.354269 0.917951 
-0.020582 0.019828 0.002862 -0.182496 -0.160758 0.969975 
-0.032967 0.051090 0.001117 0.647402 0.421152 -0.635218 
-0.020722 0.020015 0.002481 0.010481 0.026900 -0.999583 
-0.020119 0.019964 0.002446 -0.178929 0.044066 -0.982875 
-0.028905 0.019377 0.003249 -0.139034 -0.568886 0.810579 
-0.012353 0.000199 0.004109 0.002836 -0.128628 0.991689 
-0.020091 0.020118 0.003065 -0.336554 -0.363494 0.868679 
-0.034296 0.052546 0.000762 0.267631 0.048915 -0.962279 
-0.020830 0.020723 0.002540 0.114729 -0.062822 -0.991408 
-0.029337 0.020171 0.003655 -0.276955 -0.264501 0.923761 
-0.020252 0.020769 0.002546 -0.348852 -0.195362 -0.916589 
-0.021155 0.021051 0.002343 0.192321 -0.148448 -0.970039 
-0.020752 0.021322 0.002458 -0.127972 -0.066761 -0.989528 
-0.028699 0.019913 0.003645 -0.058685 -0.294028 0.953993 
-0.019951 0.020271 0.002396 -0.509269 -0.099172 -0.854874 
-0.033698 0.051917 0.000869 0.392388 0.171492 -0.903672 
-0.027966 0.019239 0.003430 -0.181652 -0.160298 0.970210 
-0.034188 0.052932 0.000836 0.441193 0.229474 -0.867577 
-0.019248 0.019626 0.002051 -0.538333 -0.260147 -0.801575 
-0.033852 0.052508 0.000947 0.510063 0.245688 -0.824302 
-0.013544 -0.000573 0.003925 0.176104 -0.297311 0.938399 
-0.029499 0.020596 0.003580 -0.209342 0.137322 0.968152 
-0.029120 0.020408 0.003723 -0.088763 0.089299 0.992042 
-0.029656 0.021160 0.003410 -0.099647 -0.023503 0.994745 
-0.028936 0.020957 0.003521 -0.092302 0.111077 0.989516 
-0.033809 0.053231 0.001242 0.648467 0.430023 -0.628149 
-0.028484 0.020702 0.003621 0.026154 0.170201 0.985062 
-0.033208 0.051555 0.001139 0.700463 0.328527 -0.633578 
-0.013369 -0.000033 0.003959 0.089044 -0.080655 0.992757 
-0.019104 0.020508 0.001612 -0.626403 -0.202569 -0.752719 
-0.018627 0.019874 0.001296 -0.476468 -0.282539 -0.832556 
-0.030476 0.021402 0.001944 0.193883 -0.497734 -0.845382 
-0.030390 0.021671 0.001764 0.019186 -0.624071 -0.781132 
-0.033496 0.052074 0.001033 0.656545 0.250985 -0.711306 
-0.030078 0.021367 0.002259 0.269625 -0.208391 -0.940147 
-0.012869 0.000187 0.003994 -0.111520 -0.082613 0.990322 
-0.030031 0.021517 0.002202 0.086773 -0.673172 -0.734377 
-0.029583 0.021174 0.002246 -0.279866 -0.234202 -0.931034 
-0.033522 0.053003 0.001430 0.765381 0.384349 -0.516206 
-0.019664 0.019465 0.003061 -0.359506 -0.279294 0.890365 
-0.019649 0.020069 0.003328 -0.560199 -0.273467 0.781916 
-0.013480 0.000726 0.003982 -0.074041 0.287956 0.954777 
-0.029540 0.021611 0.001902 -0.032826 -0.604456 -0.795962 
-0.019305 0.019818 0.003590 -0.577557 -0.266167 0.771740 
-0.029965 0.021961 0.001539 0.081023 -0.392865 -0.916020 
-0.029975 0.022287 0.001489 0.106647 -0.005630 -0.994281 
-0.029385 0.022161 0.001667 0.115293 -0.187203 -0.975532 
-0.032152 0.049850 0.001342 0.705921 0.275259 -0.652616 
-0.019559 0.020900 0.001843 -0.585067 -0.302137 -0.752602 
-0.020351 0.021398 0.002185 -0.570366 -0.337727 -0.748748 
-0.020040 0.021816 0.001789 -0.535419 -0.300641 -0.789266 
-0.031382 0.048885 0.001981 0.775933 0.397068 -0.490169 
-0.034814 0.053754 0.000835 0.407057 0.186985 -0.894059 
-0.034254 0.053696 0.001181 0.636863 0.470514 -0.610755 
-0.020533 0.022286 0.001987 -0.640957 -0.376886 -0.668679 
-0.020685 0.021967 0.002352 -0.671224 -0.228877 -0.705034 
-0.009921 -0.006391 0.002490 0.175479 -0.034458 -0.983880 
-0.010261 -0.005982 0.002261 0.219737 -0.217118 -0.951092 
-0.029130 0.021397 0.003576 -0.099386 -0.174807 0.979574 
-0.029695 0.045626 0.001241 0.601710 0.418792 -0.680117 
-0.028555 0.021139 0.003558 0.213386 0.071013 0.974384 
-0.027728 0.020722 0.003663 0.076098 0.055445 0.995558 
-0.028179 0.021353 0.003330 0.137553 0.127657 0.982234 
-0.029289 0.045156 0.001478 0.651851 0.461366 -0.601857 
-0.028724 0.021581 0.003611 0.200503 -0.014726 0.979582 
-0.028612 0.022016 0.003553 0.204820 -0.025215 0.978475 
-0.029385 0.045632 0.001921 0.733039 0.550463 -0.399555 
-0.016263 0.015284 0.001769 -0.594351 -0.280071 -0.753862 
-0.016502 0.015961 0.001689 -0.534609 -0.337088 -0.774961 
-0.028706 0.044767 0.001713 0.732349 0.423807 -0.532966 
-0.014240 0.015434 0.001529 0.161080 0.147095 -0.975918 
-0.014688 0.014617 0.001262 0.007987 0.087244 -0.996155 
-0.014984 0.015218 0.001332 0.038886 0.052222 -0.997878 
-0.013852 0.014941 0.001437 0.208401 0.277112 -0.937965 
-0.014957 0.015927 0.001397 0.109242 0.015117 -0.993900 
-0.010769 -0.005510 0.002129 0.029677 0.084455 -0.995985 
-0.030011 0.046326 0.001641 0.724952 0.448998 -0.522345 
-0.014106 0.015963 0.001557 0.343743 0.008030 -0.939029 
-0.014701 0.016582 0.001338 0.143597 -0.120581 -0.982263 
-0.010185 -0.005432 0.002211 0.067527 0.013577 -0.997625 
-0.030192 0.046775 0.001651 0.752512 0.292327 -0.590145 
-0.013855 0.015807 0.001649 0.385767 0.167459 -0.907271 
-0.015610 0.017817 0.001162 0.102718 0.040084 -0.993903 
-0.016198 0.018466 0.001110 0.052560 0.139366 -0.988845 
-0.015242 0.017977 0.001274 0.356383 0.262529 -0.896699 
-0.015729 0.018888 0.001381 0.391543 0.310832 -0.866070 
-0.026926 0.019716 0.001820 -0.076150 -0.020611 -0.996883 
-0.009023 -0.006959 0.002441 -0.093901 0.180328 -0.979114 
-0.041484 0.049299 0.001783 0.013788 0.062822 -0.997930 
-0.041907 0.049718 0.001834 0.013825 0.037563 -0.999199 
-0.041307 0.049934 0.001780 -0.017212 0.074987 -0.997036 
-0.041268 0.050357 0.001844 0.015758 0.027352 -0.999502 
-0.017886 0.015802 0.002792 0.980654 -0.033795 -0.192808 
-0.018010 0.015863 0.002628 0.378606 -0.027102 -0.925161 
-0.008823 -0.006395 0.002657 -0.042412 0.233757 -0.971370 
-0.040610 0.049646 0.001869 -0.031934 -0.071253 -0.996947 
-0.040776 0.048779 0.001861 0.025669 0.045100 -0.998653 
-0.041067 0.049169 0.001807 0.125394 -0.010232 -0.992054 
-0.009486 -0.006030 0.002604 0.229006 -0.114214 -0.966701 
-0.017907 0.016696 0.002371 -0.508301 -0.271426 -0.817287 
-0.017286 0.016577 0.001859 -0.543223 -0.324599 -0.774303 
-0.017810 0.016076 0.002588 -0.199076 -0.583170 -0.787580 
-0.041165 0.049303 0.002182 -0.006920 -0.002245 0.999974 
-0.040567 0.049012 0.002110 -0.045247 -0.098194 0.994138 
-0.040660 0.049607 0.002188 0.007760 0.059341 0.998208 
-0.018517 0.016078 0.002587 0.012363 -0.063119 -0.997929 
-0.040805 0.050284 0.001843 -0.097740 -0.011839 -0.995142 
-0.008943 -0.005865 0.002622 0.071836 -0.172033 -0.982468 
-0.040324 0.049072 0.001883 -0.131649 0.063097 -0.989286 
-0.018661 0.016662 0.002449 -0.023167 -0.022272 -0.999484 
-0.008221 -0.005983 0.002686 0.044992 0.086283 -0.995254 
-0.039953 0.048727 0.001750 0.001015 -0.000006 -1.000000 
-0.040056 0.049451 0.001805 -0.043222 -0.057985 -0.997381 
-0.017907 0.015711 0.002928 0.644899 0.180334 0.742688 
-0.017718 0.015992 0.002777 0.069925 -0.968377 -0.239491 
-0.017852 0.015990 0.002992 0.507267 -0.562671 0.652749 
-0.009675 -0.005411 0.002278 0.252387 -0.195372 -0.947698 
-0.040098 0.049118 0.002223 0.010940 -0.034305 0.999352 
-0.026215 0.019033 0.003478 0.152194 -0.184918 0.970898 
-0.018419 0.016184 0.003195 0.098890 0.040500 0.994274 
-0.025638 0.018732 0.003210 0.135268 -0.198095 0.970804 
-0.039784 0.050133 0.002080 -0.031425 0.075125 0.996679 
-0.039690 0.049476 0.002167 0.129371 -0.009386 0.991552 
-0.025126 0.018224 0.003186 -0.170628 0.086115 0.981565 
-0.025125 0.018767 0.003216 -0.078294 -0.077765 0.993893 
-0.017579 0.016324 0.003101 0.186689 -0.325042 0.927089 
-0.018030 0.016220 0.003219 0.116847 -0.102282 0.987869 
-0.040115 0.050241 0.001657 -0.069431 -0.075673 -0.994713 
-0.018239 0.016712 0.002468 -0.107941 -0.049107 -0.992944 
-0.010707 -0.004764 0.002414 -0.057713 0.136299 -0.988985 
-0.025691 0.019209 0.003447 0.141208 -0.371773 0.917521 
-0.011028 -0.004275 0.002411 0.112890 -0.128524 -0.985260 
-0.018306 0.017112 0.002535 -0.383148 0.081449 -0.920089 
-0.040544 0.050681 0.001743 -0.464753 -0.034097 -0.884784 
-0.040744 0.050656 0.001833 -0.714092 0.563787 -0.414990 
-0.025012 0.019236 0.003271 0.064237 -0.357839 0.931571 
-0.039767 0.049609 0.001840 0.009689 -0.108983 -0.993996 
-0.039671 0.050183 0.001692 0.070252 -0.023471 -0.997253 
-0.010628 -0.004339 0.002389 -0.180158 -0.114367 -0.976966 
-0.040696 0.049968 0.002104 0.070716 0.176042 0.981839 
-0.010082 -0.004607 0.002249 -0.134652 -0.027523 -0.990511 
-0.009803 -0.004929 0.002231 0.135414 0.020932 -0.990568 
-0.040062 0.050473 0.001672 0.033381 -0.035456 -0.998814 
-0.040253 0.050494 0.002067 -0.078505 0.125043 0.989040 
-0.017600 0.016604 0.003136 -0.306503 -0.236005 0.922148 
-0.027182 0.020303 0.001870 0.063307 -0.105034 -0.992452 
-0.026960 0.020876 0.001764 0.127604 -0.134841 -0.982617 
-0.017353 0.015506 0.002627 -0.630649 -0.093818 -0.770377 
-0.017463 0.015819 0.002384 -0.684258 -0.455259 -0.569676 
-0.040631 0.051047 0.001742 -0.217845 -0.122936 -0.968210 
-0.040285 0.050759 0.001600 -0.154427 -0.083852 -0.984439 
-0.026448 0.020321 0.001826 0.102073 0.013583 -0.994684 
-0.040317 0.051256 0.001741 0.099267 0.248719 -0.963475 
-0.040011 0.050807 0.001636 0.199734 0.116382 -0.972914 
-0.017639 0.015513 0.002775 0.130379 0.951826 -0.277540 
-0.017424 0.015660 0.002786 -0.995671 0.040140 -0.083834 
-0.009032 -0.005070 0.002398 0.139721 -0.050216 -0.988917 
-0.008022 -0.005171 0.002478 0.230469 -0.123919 -0.965157 
-0.008236 -0.004726 0.002463 0.149608 -0.008577 -0.988708 
-0.017515 0.015936 0.002706 -0.662611 -0.671195 0.332331 
-0.039521 0.050628 0.001766 0.168988 0.127478 -0.977340 
-0.039804 0.051299 0.001866 0.392963 0.285708 -0.874043 
-0.039748 0.050872 0.001747 0.468891 0.341893 -0.814402 
-0.039639 0.051163 0.001926 0.413034 0.286679 -0.864418 
-0.039493 0.050892 0.001952 -0.203334 0.374343 -0.904722 
-0.039706 0.050967 0.001995 0.584217 0.145724 -0.798408 
-0.039384 0.050997 0.001906 0.005763 0.514620 -0.857399 
-0.017151 0.016027 0.002127 -0.509211 -0.439075 -0.740214 
-0.039427 0.051235 0.001976 0.239975 0.820608 -0.518666 
-0.009134 -0.003857 0.002276 0.203498 -0.224295 -0.953037 
-0.009201 -0.004402 0.002502 0.175801 -0.131692 -0.975577 
-0.009644 -0.004236 0.002246 0.264819 -0.211297 -0.940864 
-0.008676 -0.004224 0.002390 0.017376 -0.198980 -0.979850 
-0.007953 -0.004196 0.002477 0.283428 -0.025424 -0.958656 
-0.025696 0.020721 0.002088 0.127088 -0.073346 -0.989176 
-0.017267 0.016088 0.003031 -0.673215 -0.310774 0.670970 
-0.025366 0.020831 0.002036 -0.185087 -0.219426 -0.957912 
-0.042063 0.049835 0.002176 -0.013556 0.023762 0.999626 
-0.011109 -0.006083 0.003678 0.041144 -0.047409 0.998028 
-0.010503 -0.006013 0.003703 -0.020302 -0.020710 0.999579 
-0.016767 0.015742 0.003647 -0.725497 -0.149949 0.671691 
-0.041247 0.050202 0.002146 0.039781 0.101578 0.994032 
-0.041721 0.049573 0.002126 0.028282 -0.000167 0.999600 
-0.041897 0.050653 0.001769 0.031176 0.000759 -0.999514 
-0.024949 0.021015 0.001851 -0.242008 -0.307894 -0.920127 
-0.041857 0.050680 0.002076 -0.011264 0.026933 0.999574 
-0.042084 0.051027 0.001790 0.050649 -0.015206 -0.998601 
-0.011788 -0.005788 0.003873 0.150497 -0.209356 0.966189 
-0.011468 -0.005682 0.003779 0.261857 -0.263899 0.928326 
-0.016976 0.016466 0.003725 -0.712740 -0.275856 0.644907 
-0.011497 -0.005395 0.003904 0.109301 -0.239132 0.964816 
-0.017891 0.017532 0.002040 -0.628999 -0.238621 -0.739879 
-0.017442 0.017368 0.001751 -0.549323 -0.230864 -0.803085 
-0.010933 -0.005406 0.003712 0.200476 -0.190196 0.961059 
-0.041388 0.050804 0.002063 0.017554 0.007825 0.999815 
-0.011141 -0.005073 0.003972 0.282050 -0.421326 0.861935 
-0.011511 -0.004746 0.004212 0.077183 -0.295865 0.952107 
-0.018518 0.017471 0.002752 -0.264647 0.074297 -0.961479 
-0.027587 0.019726 0.003350 0.177781 0.007786 0.984039 
-0.027061 0.019096 0.003575 -0.065123 0.088947 0.993905 
-0.041550 0.051290 0.002105 0.022409 -0.049437 0.998526 
-0.010588 -0.004825 0.003749 0.222114 -0.467741 0.855502 
-0.010004 -0.005008 0.003626 0.057002 -0.191522 0.979832 
-0.026818 0.019631 0.003453 -0.073088 0.119146 0.990183 
-0.027988 0.020193 0.003628 0.182566 -0.135849 0.973763 
-0.010641 -0.004457 0.004064 0.143755 -0.319789 0.936520 
-0.027477 0.020234 0.003417 0.248098 -0.249278 0.936113 
-0.018095 0.018019 0.002066 -0.639080 -0.333617 -0.693020 
-0.017525 0.018016 0.001636 -0.507525 -0.317358 -0.801063 
-0.009625 -0.006253 0.003693 -0.023017 0.082162 0.996353 
-0.027238 0.019838 0.003293 -0.051791 0.128708 0.990329 
-0.017968 0.018602 0.001560 -0.530596 -0.385112 -0.755088 
-0.027124 0.020392 0.003420 0.021062 -0.237460 0.971169 
-0.026737 0.020062 0.003476 -0.088290 0.032368 0.995569 
-0.008994 -0.006612 0.003824 0.030536 -0.014564 0.999428 
-0.040836 0.050429 0.002063 0.100824 0.310218 0.945304 
-0.018869 0.016278 0.003310 0.129093 -0.038280 0.990893 
-0.040936 0.050563 0.002057 0.411842 0.125080 0.902630 
-0.009781 -0.005846 0.003691 -0.019980 -0.013807 0.999705 
-0.040910 0.050834 0.001817 0.251464 -0.252528 -0.934342 
-0.040866 0.050612 0.001906 0.946135 0.319778 0.050707 
-0.040818 0.050739 0.001994 0.897965 -0.326966 0.294538 
-0.040913 0.051043 0.002088 0.137001 -0.113431 0.984055 
-0.040596 0.050658 0.001977 -0.271582 0.379506 0.884431 
-0.009169 -0.005436 0.003818 -0.012394 0.022260 0.999675 
-0.009241 -0.005977 0.003657 -0.036606 -0.024661 0.999025 
-0.018587 0.016663 0.003016 0.194863 0.280164 0.939966 
-0.042130 0.051684 0.001778 -0.006229 0.058226 -0.998284 
-0.008741 -0.005777 0.003712 -0.043439 0.003915 0.999048 
-0.018702 0.017263 0.003005 -0.019311 0.057953 0.998133 
-0.018295 0.017176 0.003022 -0.278386 -0.188843 0.941722 
-0.041701 0.051725 0.001731 0.072464 -0.210836 -0.974832 
-0.042287 0.052011 0.001789 -0.407705 0.158216 -0.899302 
-0.042108 0.051997 0.001733 -0.378194 -0.612229 -0.694366 
-0.042062 0.051952 0.001861 -0.249917 -0.459379 -0.852357 
-0.041896 0.051855 0.001703 -0.411469 -0.551131 -0.725912 
-0.026148 0.019745 0.003455 -0.046906 0.047201 0.997784 
-0.025765 0.019499 0.003518 -0.180492 -0.128107 0.975198 
-0.041556 0.051158 0.001820 0.023460 -0.080385 -0.996488 
-0.018015 0.016725 0.003078 -0.193765 0.027977 0.980649 
-0.026085 0.020249 0.003420 -0.127801 0.171342 0.976887 
-0.040886 0.051541 0.001727 -0.008262 -0.073063 -0.997293 
-0.017890 0.017098 0.003236 -0.457123 -0.418445 0.784820 
-0.017252 0.017024 0.003565 -0.619883 -0.399494 0.675388 
-0.025408 0.019746 0.003678 -0.012764 -0.246519 0.969054 
-0.041070 0.051386 0.002118 0.031626 -0.016645 0.999361 
-0.024882 0.019482 0.003434 0.223812 -0.403758 0.887067 
-0.010438 -0.003608 0.002208 -0.112081 -0.126410 -0.985626 
-0.041385 0.051724 0.002101 0.018568 0.049836 0.998585 
-0.041864 0.052239 0.001483 -0.231727 0.109101 -0.966643 
-0.041708 0.051930 0.001484 0.475062 -0.474485 -0.741067 
-0.041921 0.051984 0.001476 -0.463962 -0.342897 -0.816800 
-0.027277 0.020911 0.003613 -0.067704 -0.009906 0.997656 
-0.041652 0.052091 0.001765 0.655592 -0.171092 -0.735477 
-0.018483 0.017643 0.003133 -0.527112 -0.305436 0.793008 
-0.010314 -0.004456 0.004108 0.055812 -0.329514 0.942500 
-0.026369 0.020576 0.003374 0.142144 -0.116588 0.982956 
-0.041583 0.052485 0.001533 0.352695 -0.139667 -0.925256 
-0.026723 0.021168 0.003762 -0.026842 -0.117994 0.992652 
-0.041443 0.052469 0.001646 0.265484 -0.517741 -0.813304 
-0.041098 0.051912 0.001762 -0.102762 0.102894 -0.989370 
-0.040755 0.051899 0.001649 -0.235954 -0.435896 -0.868516 
-0.040933 0.052213 0.001450 -0.917194 -0.370760 -0.145919 
-0.040573 0.052010 0.001459 0.017273 -0.615068 -0.788285 
-0.018597 0.018077 0.003248 -0.502215 -0.390199 0.771703 
-0.040808 0.052261 0.001288 -0.177024 -0.328818 -0.927654 
-0.040817 0.052150 0.001720 -0.885159 0.026014 -0.464561 
-0.040822 0.052463 0.001604 -0.967612 -0.249806 0.036376 
-0.040931 0.052355 0.001824 -0.357039 -0.147117 -0.922432 
-0.009429 -0.004992 0.003614 -0.028896 0.065818 0.997413 
-0.027283 0.021336 0.003455 -0.242604 0.217657 0.945394 
-0.009655 -0.004599 0.003773 0.116607 -0.370366 0.921538 
-0.040661 0.051875 0.002081 -0.056800 -0.016550 0.998248 
-0.017966 0.017602 0.003599 -0.531484 -0.402310 0.745434 
-0.008820 -0.005054 0.003740 0.022947 -0.002113 0.999734 
-0.009091 -0.004400 0.003735 0.036059 -0.198589 0.979419 
-0.042185 0.051724 0.002043 -0.063214 0.307936 0.949305 
-0.041788 0.051727 0.002136 -0.097659 0.149612 0.983910 
-0.042257 0.052027 0.001891 0.062122 0.090709 0.993938 
-0.042018 0.051960 0.001906 -0.274026 0.172109 0.946197 
-0.018428 0.018287 0.003500 -0.475354 -0.278495 0.834553 
-0.008736 -0.004624 0.003806 0.089818 0.030688 0.995485 
-0.017724 0.017894 0.003810 -0.507940 -0.082366 0.857446 
-0.008799 -0.004148 0.003752 0.338028 -0.132111 0.931817 
-0.008401 -0.004376 0.003553 0.419492 0.267920 0.867321 
-0.008198 -0.003903 0.003374 0.421828 -0.267053 0.866455 
-0.027866 0.021950 0.003391 0.037619 -0.156158 0.987015 
-0.027217 0.021895 0.003395 -0.225577 0.027948 0.973824 
-0.009629 -0.004170 0.003960 0.216008 -0.264877 0.939777 
-0.041851 0.052332 0.002024 -0.121958 -0.036455 0.991866 
-0.026685 0.021572 0.003712 -0.217294 0.104476 0.970499 
-0.018217 0.018915 0.003720 -0.336581 -0.284140 0.897762 
-0.026337 0.021764 0.003680 0.209947 0.020038 0.977508 
-0.017812 0.018500 0.003720 -0.472539 -0.163769 0.865960 
-0.041386 0.052643 0.002066 -0.075493 0.027529 0.996766 
-0.010161 -0.003997 0.004095 0.100123 -0.035996 0.994324 
-0.040618 0.052533 0.002084 0.358788 0.213326 0.908715 
-0.017086 0.017171 0.003857 -0.633223 -0.367767 0.681011 
-0.009859 -0.003531 0.004084 0.004966 0.021113 0.999765 
-0.025873 0.020638 0.003313 -0.062400 0.108664 0.992118 
-0.040767 0.050802 0.001986 0.487943 -0.778178 0.395413 
-0.009504 -0.003832 0.003971 0.072046 -0.173644 0.982170 
-0.040663 0.050796 0.001925 -0.774218 -0.620346 0.125525 
-0.025534 0.020195 0.003691 -0.273246 0.151595 0.949924 
-0.040465 0.050842 0.001929 -0.105405 -0.054682 0.992925 
-0.025100 0.020210 0.003707 0.070682 -0.094962 0.992968 
-0.017147 0.018198 0.001360 -0.340181 -0.254116 -0.905374 
-0.040625 0.051343 0.002067 0.030029 -0.097069 0.994825 
-0.009080 -0.003811 0.003972 0.287851 -0.240312 0.927034 
-0.039995 0.050851 0.002079 -0.085782 -0.030895 0.995835 
-0.017508 0.019213 0.001275 -0.057086 -0.015341 -0.998251 
-0.016709 0.019553 0.001424 0.111308 0.249092 -0.962062 
-0.016766 0.018593 0.001191 -0.113067 0.040845 -0.992747 
-0.017569 0.018825 0.001264 -0.287364 -0.146936 -0.946484 
-0.025042 0.020676 0.003634 -0.235173 0.499276 0.833916 
-0.039612 0.050733 0.002067 -0.074652 -0.019950 0.997010 
-0.025898 0.021292 0.003513 0.243861 -0.196242 0.949748 
-0.039722 0.051296 0.002104 0.070142 0.012577 0.997458 
-0.039317 0.051150 0.002160 -0.025896 0.408727 0.912289 
-0.025359 0.020889 0.003356 -0.043324 0.284313 0.957752 
-0.040364 0.051613 0.001835 0.175265 -0.103061 -0.979112 
-0.040444 0.051852 0.001763 -0.055463 -0.586657 -0.807934 
-0.025115 0.020998 0.003251 0.076832 0.321341 0.943841 
-0.025403 0.021323 0.003411 0.234530 -0.125972 0.963912 
-0.039994 0.051572 0.001932 0.185454 0.052695 -0.981239 
-0.024674 0.021059 0.003327 -0.002406 0.532658 0.846328 
-0.016145 0.019022 0.001294 0.110316 0.217748 -0.969751 
-0.007738 -0.005987 0.002725 0.321955 0.207664 -0.923700 
-0.040383 0.052065 0.001852 0.356046 0.906832 -0.225582 
-0.040336 0.052140 0.001736 -0.025798 0.407905 0.912660 
-0.040427 0.052187 0.001798 0.955888 -0.085967 0.280871 
-0.040130 0.051921 0.001554 0.207513 -0.603532 -0.769862 
-0.016085 0.019459 0.001363 0.285880 0.411707 -0.865315 
-0.039905 0.052077 0.001536 0.016381 -0.703841 -0.710169 
-0.039914 0.051690 0.002151 0.228966 -0.013541 0.973340 
-0.040380 0.052199 0.001907 0.619185 0.086567 -0.780459 
-0.040312 0.052231 0.002173 -0.078112 0.289357 0.954029 
-0.007113 -0.006635 0.002966 0.463002 0.607115 -0.645787 
-0.007342 -0.006286 0.002989 0.560563 0.242380 -0.791846 
-0.016508 0.019851 0.001566 0.332872 0.299908 -0.894009 
-0.039611 0.051360 0.002090 0.820264 0.111257 0.561060 
-0.039589 0.051250 0.002055 0.503641 0.854562 -0.126769 
-0.039582 0.051529 0.002044 0.962821 0.251365 0.098951 
-0.008482 -0.006631 0.003720 0.031123 -0.110944 0.993339 
-0.039784 0.051731 0.001965 0.870346 0.043204 -0.490541 
-0.039831 0.051975 0.001837 0.818888 -0.242761 -0.520086 
-0.039761 0.051829 0.002093 0.802242 -0.047822 0.595081 
-0.016818 0.020451 0.001378 0.336580 0.069555 -0.939082 
-0.039743 0.052012 0.002035 0.966633 -0.049867 0.251263 
-0.008769 -0.006314 0.003767 -0.023520 0.067786 0.997423 
-0.027955 0.022585 0.001767 0.170382 -0.001353 -0.985377 
-0.029096 0.022573 0.001651 0.017559 0.168135 -0.985608 
-0.027552 0.021932 0.001854 -0.069559 0.118415 -0.990525 
-0.039908 0.052101 0.002158 0.224660 -0.181847 0.957319 
-0.016283 0.020003 0.001775 0.534969 0.222925 -0.814931 
-0.007850 -0.006882 0.003816 -0.068615 -0.105867 0.992010 
-0.026923 0.022495 0.001934 -0.052462 0.199178 -0.978558 
-0.039387 0.049088 0.001822 -0.042942 -0.041623 -0.998210 
-0.027347 0.022732 0.001955 0.118003 -0.122676 -0.985406 
-0.017011 0.021227 0.001616 0.304410 0.281165 -0.910099 
-0.039505 0.048458 0.001843 0.042065 -0.016442 -0.998980 
-0.017898 0.021179 0.001243 0.216190 0.130258 -0.967623 
-0.007804 -0.006288 0.003703 0.085840 0.042177 0.995416 
-0.016327 0.020544 0.001620 0.497665 -0.104115 -0.861098 
-0.038966 0.048526 0.001816 0.114678 -0.077085 -0.990407 
-0.039059 0.048316 0.002167 -0.011337 -0.022266 0.999688 
-0.038774 0.049236 0.002128 -0.071476 0.045222 0.996417 
-0.039461 0.049005 0.002035 0.087584 0.027366 0.995781 
-0.038659 0.048395 0.002135 0.447069 -0.359698 0.818991 
-0.038662 0.048348 0.001946 0.650312 -0.113330 -0.751166 
-0.038326 0.048609 0.002145 0.178028 -0.622290 0.762274 
-0.038489 0.048495 0.001951 0.476377 -0.574743 -0.665384 
-0.016436 0.020862 0.001574 0.319170 0.217048 -0.922508 
-0.038623 0.048631 0.002200 0.023895 -0.080938 0.996433 
-0.029462 0.022692 0.001671 0.160021 0.234499 -0.958855 
-0.038831 0.049301 0.001721 0.044117 -0.049258 -0.997811 
-0.038454 0.048818 0.001924 0.061243 -0.174980 -0.982665 
-0.006240 -0.007716 0.003643 0.288525 0.123517 0.949472 
-0.015454 0.019141 0.001700 0.459504 0.485503 -0.743736 
-0.006477 -0.007477 0.003837 0.590710 0.074377 0.803449 
-0.039240 0.049616 0.001742 -0.042335 -0.065030 -0.996985 
-0.006373 -0.007145 0.003478 0.535536 -0.146035 0.831790 
-0.006150 -0.007390 0.003472 0.021872 0.114494 0.993183 
-0.029820 0.023381 0.001825 0.197661 0.129014 -0.971744 
-0.038930 0.049804 0.001791 0.081132 0.003551 -0.996697 
-0.006451 -0.007084 0.003675 0.772374 -0.020676 0.634832 
-0.015595 0.019570 0.001941 0.443101 0.486941 -0.752695 
-0.029242 0.023079 0.001881 0.072839 0.229804 -0.970507 
-0.006529 -0.006828 0.003035 0.012784 0.505275 -0.862864 
-0.038415 0.049355 0.001762 0.059333 -0.148186 -0.987178 
-0.038208 0.049197 0.001825 0.475315 -0.160809 -0.864995 
-0.006971 -0.006394 0.003093 0.150536 0.102408 -0.983286 
-0.038578 0.050159 0.001791 0.083473 0.084611 -0.992911 
-0.038087 0.049669 0.001731 0.329195 -0.148503 -0.932512 
-0.015934 0.020113 0.002008 0.503504 0.092022 -0.859079 
-0.028573 0.022901 0.001768 -0.036177 0.182213 -0.982593 
-0.039908 0.048607 0.002197 0.014063 -0.031870 0.999393 
-0.006235 -0.006525 0.002973 -0.093775 0.175771 -0.979955 
-0.020620 0.023136 0.001615 -0.474691 -0.307831 -0.824565 
-0.020292 0.022542 0.001648 -0.505117 -0.326544 -0.798890 
-0.020847 0.022753 0.001987 -0.551694 -0.414563 -0.723721 
-0.006224 -0.006937 0.003543 0.053136 -0.245690 0.967891 
-0.005951 -0.007094 0.003655 -0.374056 -0.219932 0.900951 
-0.039155 0.049520 0.002050 -0.038535 -0.073156 0.996576 
-0.005944 -0.006669 0.003661 -0.145422 -0.036710 0.988688 
-0.029196 0.023753 0.001882 0.062943 -0.071935 -0.995421 
-0.007294 -0.006809 0.003826 -0.214230 0.071013 0.974198 
-0.020992 0.023397 0.001746 -0.527257 -0.309237 -0.791437 
-0.020427 0.023781 0.001317 -0.309464 -0.163775 -0.936702 
-0.021068 0.023902 0.001627 -0.490321 -0.271975 -0.828018 
-0.028571 0.023448 0.001881 -0.080779 0.139815 -0.986877 
-0.006973 -0.007415 0.004017 -0.120796 0.005186 0.992664 
-0.019786 0.023503 0.001214 -0.177002 -0.069045 -0.981786 
-0.020816 0.024240 0.001416 -0.338695 -0.171233 -0.925184 
-0.006974 -0.007044 0.003896 0.074252 0.182742 0.980353 
-0.006609 -0.006867 0.003786 0.392640 0.087444 0.915526 
-0.039344 0.050031 0.002122 -0.043872 -0.004757 0.999026 
-0.039231 0.050095 0.001709 0.072627 0.087727 -0.993494 
-0.029371 0.024337 0.001754 0.144949 -0.194712 -0.970091 
-0.007406 -0.006354 0.003667 -0.013194 0.185668 0.982524 
-0.007003 -0.006780 0.003923 -0.007401 0.101596 0.994798 
-0.039194 0.050742 0.002127 0.040831 0.013813 0.999071 
-0.006852 -0.006295 0.003757 0.071633 0.170655 0.982724 
-0.038872 0.050428 0.002146 0.131178 0.154346 0.979270 
-0.018863 0.021794 0.001095 -0.141210 -0.088657 -0.986002 
-0.019600 0.022268 0.001401 -0.390201 -0.201986 -0.898301 
-0.018785 0.022584 0.001152 -0.022970 0.009050 -0.999695 
-0.006241 -0.006499 0.003671 0.036176 -0.036851 0.998666 
-0.006437 -0.006061 0.003601 0.043537 -0.056330 0.997463 
-0.038782 0.049898 0.002175 0.008487 -0.012645 0.999884 
-0.038328 0.049338 0.002089 0.271591 0.070783 0.959806 
-0.038072 0.049743 0.002086 0.172119 -0.322152 0.930910 
-0.038372 0.050224 0.002064 0.024060 0.134840 0.990575 
-0.019785 0.023001 0.001260 -0.287186 -0.162301 -0.944025 
-0.018940 0.023216 0.001152 0.086725 0.091543 -0.992018 
-0.027927 0.023439 0.001721 -0.113780 0.121320 -0.986071 
-0.027623 0.022957 0.001837 0.173477 -0.190446 -0.966248 
-0.038213 0.048139 0.001978 -0.993980 -0.104933 0.031499 
-0.038114 0.048475 0.001858 -0.599143 -0.056714 -0.798631 
-0.038095 0.048562 0.002098 -0.190380 -0.305750 0.932884 
-0.038280 0.048546 0.001976 -0.248324 -0.946630 -0.205493 
-0.038013 0.048156 0.002130 -0.278994 -0.072601 0.957545 
-0.007603 -0.005478 0.002751 0.288294 -0.210712 -0.934070 
-0.038105 0.048830 0.001866 0.137470 0.163539 -0.976912 
-0.037681 0.048683 0.001862 0.376350 0.664729 -0.645366 
-0.037827 0.048770 0.002014 0.464293 0.803676 0.372205 
-0.037949 0.048920 0.001927 0.532221 0.647238 -0.545732 
-0.037634 0.048623 0.002134 0.238225 0.566131 0.789142 
-0.018661 0.021453 0.001167 -0.022230 -0.118519 -0.992703 
-0.018121 0.022335 0.001237 0.262027 0.059583 -0.963220 
-0.026927 0.023414 0.001701 0.047511 -0.194696 -0.979712 
-0.007236 -0.005974 0.003003 0.262547 -0.207308 -0.942387 
-0.026564 0.022718 0.001956 -0.086762 0.058996 -0.994481 
-0.007144 -0.005524 0.002809 0.203797 -0.202550 -0.957831 
-0.038077 0.048834 0.002181 0.377312 0.038476 0.925287 
-0.037993 0.049004 0.002097 0.798822 0.403037 0.446592 
-0.037722 0.047813 0.002101 -0.011217 -0.109735 0.993898 
-0.037364 0.048293 0.002101 -0.083363 0.022360 0.996268 
-0.037115 0.048213 0.002218 -0.307356 0.019047 0.951404 
-0.028742 0.024194 0.001866 0.196316 -0.023427 -0.980261 
-0.028055 0.024001 0.001991 -0.096822 0.196415 -0.975729 
-0.028417 0.024332 0.001997 0.209509 0.036641 -0.977120 
-0.007156 -0.005009 0.002794 0.261105 -0.069479 -0.962807 
-0.037293 0.048510 0.002037 0.599439 0.798180 0.059842 
-0.006718 -0.005707 0.002979 0.171040 -0.164086 -0.971504 
-0.037230 0.048494 0.002059 -0.475248 0.865390 0.158873 
-0.037076 0.048646 0.002058 -0.912214 0.331112 0.241308 
-0.018016 0.023172 0.001397 0.409286 0.268376 -0.872043 
-0.036766 0.048764 0.002194 -0.137262 -0.004218 0.990526 
-0.017714 0.022752 0.001443 0.503958 0.155713 -0.849577 
-0.017842 0.021902 0.001311 0.349464 0.070776 -0.934273 
-0.007696 -0.005552 0.003718 0.010988 0.097930 0.995133 
-0.017254 0.022666 0.001795 0.607575 0.194009 -0.770204 
-0.016826 0.021926 0.001894 0.524206 0.270829 -0.807379 
-0.038097 0.049203 0.002005 0.915645 0.349938 0.197831 
-0.038126 0.049383 0.001930 0.948580 -0.244546 0.200979 
-0.037936 0.049651 0.001883 0.569541 -0.801594 -0.181851 
-0.007565 -0.004576 0.002692 0.305580 -0.043481 -0.951173 
-0.037901 0.049794 0.001807 0.216541 -0.220182 -0.951120 
-0.017426 0.023042 0.001758 0.618511 0.357642 -0.699668 
-0.028893 0.024793 0.001779 0.239807 -0.003087 -0.970816 
-0.037534 0.049444 0.002054 -0.778251 -0.627925 0.005921 
-0.037683 0.049699 0.001913 -0.112039 -0.736111 -0.667524 
-0.037458 0.049662 0.001926 -0.037780 -0.137659 -0.989759 
-0.037359 0.049331 0.001935 -0.594423 -0.353010 -0.722527 
-0.037798 0.049809 0.002152 -0.250546 -0.388031 0.886938 
-0.037437 0.049582 0.002176 -0.242676 -0.219528 0.944942 
-0.037040 0.048820 0.001995 -0.797913 -0.207328 -0.565995 
-0.006198 -0.004601 0.002928 -0.009606 -0.139740 -0.990142 
-0.006652 -0.005269 0.003007 0.183094 -0.072948 -0.980385 
-0.037040 0.048973 0.002147 -0.417306 -0.278761 0.864955 
-0.037292 0.049102 0.002055 -0.795427 -0.604967 0.036206 
-0.006797 -0.005198 0.003560 -0.074292 0.317802 0.945242 
-0.007215 -0.004830 0.003513 0.077231 0.255810 0.963637 
-0.007311 -0.005151 0.003652 0.078235 0.273442 0.958702 
-0.037284 0.049832 0.001940 -0.159001 -0.216638 -0.963217 
-0.036527 0.049368 0.002288 -0.317788 -0.228815 0.920138 
-0.006585 -0.006099 0.003078 0.027047 -0.043573 -0.998684 
-0.037338 0.049287 0.002166 -0.519831 -0.358178 0.775554 
-0.019271 0.024545 0.001375 0.166156 0.095276 -0.981486 
-0.019522 0.023952 0.001212 0.060682 0.131291 -0.989485 
-0.020184 0.024455 0.001264 -0.056509 0.002261 -0.998400 
-0.029456 0.025726 0.001827 0.057413 0.233446 -0.970673 
-0.029193 0.025565 0.001840 0.147862 0.087999 -0.985085 
-0.028068 0.024718 0.001997 0.079749 -0.011772 -0.996745 
-0.006074 -0.005889 0.003127 -0.030043 -0.033906 -0.998973 
-0.018624 0.024202 0.001457 0.376549 0.184451 -0.907848 
-0.028119 0.025319 0.002013 0.040035 -0.081548 -0.995865 
-0.018420 0.023782 0.001437 0.405215 0.277319 -0.871146 
-0.038127 0.050256 0.001863 0.019623 0.064569 -0.997720 
-0.019825 0.024935 0.001283 0.106625 0.031845 -0.993789 
-0.018853 0.024918 0.001466 0.378705 0.230195 -0.896434 
-0.019499 0.025551 0.001401 0.309697 0.166707 -0.936107 
-0.005939 -0.005179 0.003001 -0.210295 -0.168069 -0.963083 
-0.039116 0.050551 0.001886 0.082071 0.098327 -0.991764 
-0.038741 0.050568 0.001804 0.181007 0.539711 -0.822161 
-0.027178 0.023970 0.001701 -0.160405 0.085540 -0.983338 
-0.039029 0.050899 0.001833 0.509376 0.484066 -0.711489 
-0.039324 0.050808 0.001714 -0.072603 0.205185 -0.976027 
-0.018419 0.024802 0.001683 0.612551 0.309003 -0.727529 
-0.038826 0.050715 0.001906 0.507953 0.638417 -0.578280 
-0.026439 0.024000 0.001648 0.244378 -0.006054 -0.969661 
-0.006604 -0.005555 0.003713 -0.067549 0.036909 0.997033 
-0.038979 0.050865 0.002048 0.645600 0.561012 0.518137 
-0.038657 0.050572 0.002024 0.412689 0.712715 0.567208 
-0.017935 0.023537 0.001638 0.576108 0.402720 -0.711278 
-0.027629 0.024723 0.001986 -0.223113 0.026072 -0.974444 
-0.039124 0.051006 0.002138 0.516513 -0.011392 0.856203 
-0.027018 0.025157 0.001778 -0.181646 0.057471 -0.981683 
-0.005901 -0.006053 0.003734 0.084812 -0.009449 0.996352 
-0.005444 -0.006477 0.003637 0.056392 0.099554 0.993433 
-0.038448 0.050542 0.001856 0.066845 0.766096 -0.639241 
-0.018281 0.024111 0.001669 0.605264 0.269351 -0.749070 
-0.038330 0.050504 0.001992 -0.224231 0.595172 0.771680 
-0.038086 0.050545 0.001798 0.011506 0.208581 -0.977938 
-0.037862 0.050638 0.002165 -0.109809 0.491211 0.864092 
-0.017780 0.024238 0.002219 0.731188 0.331611 -0.596154 
-0.017473 0.023572 0.002139 0.689839 0.462467 -0.556998 
-0.039217 0.051291 0.001392 -0.893720 0.225765 -0.387678 
-0.038939 0.051170 0.001334 -0.012234 -0.281942 -0.959354 
-0.039085 0.050925 0.001519 -0.492363 -0.859878 -0.134868 
-0.039084 0.051053 0.001654 -0.660579 -0.250457 0.707747 
-0.016833 0.022846 0.002233 0.699841 0.422273 -0.576115 
-0.039062 0.051361 0.001569 -0.513306 0.605048 0.608633 
-0.038814 0.051302 0.001686 -0.774650 0.370966 0.512154 
-0.038597 0.051098 0.001456 0.199777 -0.494324 -0.846010 
-0.038679 0.050932 0.001632 -0.128206 -0.923083 -0.362602 
-0.038750 0.050998 0.001874 -0.659917 -0.540626 0.521759 
-0.038586 0.050790 0.001939 -0.315364 -0.775640 0.546744 
-0.038794 0.051489 0.001357 0.054704 0.238466 -0.969609 
-0.038884 0.051518 0.001395 -0.600403 0.676500 -0.426456 
-0.006319 -0.005015 0.003750 -0.081829 0.259536 0.962260 
-0.038732 0.051618 0.001648 -0.801029 0.211340 0.560079 
-0.006067 -0.005489 0.003761 0.171053 0.049121 0.984037 
-0.005321 -0.005807 0.003468 -0.125447 0.131899 0.983293 
-0.005999 -0.005027 0.003651 0.234715 0.141455 0.961717 
-0.039349 0.051251 0.001990 -0.016527 0.826850 -0.562180 
-0.039238 0.051252 0.002003 0.177640 0.773113 -0.608885 
-0.039299 0.051047 0.002057 0.289107 0.421233 -0.859640 
-0.026649 0.021961 0.001738 -0.029632 0.105575 -0.993970 
-0.039068 0.051176 0.002077 0.331781 -0.239183 -0.912531 
-0.038987 0.051257 0.002078 -0.557084 0.660012 -0.504026 
-0.005488 -0.005178 0.003536 -0.052084 -0.134847 0.989497 
-0.038742 0.051448 0.001938 -0.718783 0.694085 0.039960 
-0.038822 0.051169 0.001950 -0.847405 -0.519436 0.109961 
-0.039007 0.051163 0.002109 0.363924 -0.852466 0.375315 
-0.038939 0.051219 0.002047 -0.340547 -0.529054 -0.777257 
-0.038872 0.051213 0.002126 0.018589 -0.648599 0.760904 
-0.038629 0.051287 0.002128 0.192279 -0.244501 0.950393 
-0.038444 0.051583 0.001881 -0.374476 0.600020 0.706926 
-0.038694 0.051476 0.002144 -0.107766 0.665069 0.738965 
-0.038345 0.050827 0.001782 0.509164 -0.848730 -0.142861 
-0.038400 0.050900 0.001969 0.385921 -0.483636 0.785596 
-0.038198 0.051211 0.001893 0.503184 -0.524072 0.687135 
-0.037965 0.050705 0.001917 -0.152500 0.920769 -0.359067 
-0.016231 0.021385 0.001839 0.380075 0.461660 -0.801507 
-0.038190 0.051275 0.001475 0.470533 -0.181275 -0.863561 
-0.038004 0.051343 0.001658 0.457472 -0.585954 -0.668863 
-0.026131 0.022246 0.001661 -0.138637 0.026699 -0.989983 
-0.016714 0.021555 0.001800 0.288569 0.391710 -0.873665 
-0.037983 0.051237 0.001938 -0.419203 -0.850211 0.318449 
-0.037734 0.051311 0.001673 -0.222914 -0.450313 -0.864596 
-0.037840 0.051043 0.002045 -0.692707 -0.638827 0.334748 
-0.037708 0.051049 0.001870 -0.532950 -0.654938 -0.535743 
-0.025469 0.022217 0.001678 0.083975 -0.012073 -0.996395 
-0.025809 0.021228 0.001922 0.045280 -0.207709 -0.977142 
-0.008231 -0.006022 0.003821 0.032767 0.021695 0.999228 
-0.024228 0.017838 0.003491 -0.371636 0.051902 0.926927 
-0.038396 0.051332 0.001996 0.333333 0.111231 0.936225 
-0.038102 0.051494 0.002017 -0.295548 -0.231446 0.926868 
-0.025791 0.022578 0.001654 -0.020042 0.228562 -0.973323 
-0.008254 -0.005700 0.003733 -0.011386 0.215588 0.976418 
-0.037731 0.051378 0.002135 -0.473358 -0.240184 0.847492 
-0.037647 0.050088 0.001737 0.011679 -0.039328 -0.999158 
-0.024845 0.021473 0.001680 0.146301 -0.065192 -0.987090 
-0.037600 0.050513 0.001907 -0.137556 0.207859 -0.968439 
-0.037265 0.050317 0.001765 -0.290650 -0.094791 -0.952122 
-0.024418 0.021527 0.001888 0.259629 -0.042696 -0.964764 
-0.024423 0.018741 0.003330 -0.224631 0.015986 0.974313 
-0.036993 0.050039 0.001682 -0.370173 -0.192954 -0.908703 
-0.008284 -0.005229 0.003604 0.133333 0.095229 0.986486 
-0.023988 0.021523 0.001939 0.397720 0.014050 -0.917399 
-0.023989 0.018425 0.003438 -0.435960 0.147148 0.887855 
-0.025031 0.021849 0.001688 0.069680 0.021892 -0.997329 
-0.036868 0.049980 0.002284 -0.406808 -0.173150 0.896954 
-0.037530 0.049905 0.002225 -0.105536 0.035227 0.993791 
-0.037142 0.050002 0.002199 -0.197680 0.107531 0.974351 
-0.007900 -0.004859 0.003596 0.099168 0.233389 0.967313 
-0.036228 0.049751 0.002583 -0.550785 -0.313791 0.773416 
-0.024290 0.022271 0.001910 0.344437 0.235172 -0.908877 
-0.024355 0.019469 0.003349 -0.142729 -0.016348 0.989627 
-0.037492 0.050702 0.001884 -0.623969 0.101070 -0.774886 
-0.037437 0.051043 0.001691 -0.499015 -0.372694 -0.782358 
-0.023673 0.018994 0.003594 -0.336750 0.082547 0.937969 
-0.007881 -0.004188 0.003266 -0.028499 0.092674 0.995289 
-0.007469 -0.004540 0.003464 -0.035526 0.154417 0.987367 
-0.024876 0.022645 0.001886 0.245375 0.313603 -0.917303 
-0.023551 0.017913 0.003944 -0.167622 -0.002192 0.985849 
-0.037619 0.050209 0.002140 -0.031510 0.130649 0.990928 
-0.026044 0.023365 0.001931 0.185473 -0.004973 -0.982637 
-0.022506 0.017532 0.003518 0.044218 0.082453 0.995614 
-0.037428 0.050614 0.002039 -0.165661 0.164825 0.972311 
-0.025797 0.023178 0.001901 0.039376 0.264623 -0.963548 
-0.022733 0.017786 0.003545 0.354646 0.014863 0.934883 
-0.022299 0.017927 0.003408 -0.062378 0.128824 0.989704 
-0.037046 0.050323 0.002218 -0.594240 -0.134109 0.793028 
-0.025783 0.023818 0.002072 0.379538 0.169401 -0.909535 
-0.023212 0.018303 0.003818 0.321159 0.142302 0.936273 
-0.025035 0.023225 0.002072 0.189585 0.242070 -0.951556 
-0.025039 0.023637 0.002160 0.142079 0.298981 -0.943623 
-0.037699 0.050789 0.001962 -0.054755 0.974250 -0.218721 
-0.037499 0.050811 0.002001 -0.661765 0.459750 0.592196 
